# .PCD v0.7 - Point Cloud Data file format
VERSION 0.7
FIELDS x y z normal_x normal_y normal_z
SIZE 4 4 4 4 4 4
TYPE F F F F F F
COUNT 1 1 1 1 1 1
WIDTH 935
HEIGHT 1
VIEWPOINT 0 0 0 1 0 0 0
POINTS 935
DATA ascii
8.252386578 29.68185973 6.895462441 -0.2483124061 0.9686799905 2.472903998e-06
24.92177441 4.114918709 8.466925765 0 -1 0
14.2195634 -8.924158118 0.3059425056 -0 0 1
6.226162352 11.87704449 0.8124558926 0 0 1
-9.981448486 -4.392156124 0.4144122769 0 1 0
5.502620637 -15.65345239 0.9002215392 -0.1909026802 0.05296948552 0.9801787734
14.06167862 9.353987322 0.01279532909 0 -0 -1
-2.641301778 27.9811554 7.477106025 0 1 0
-18.26775799 0.9813868672 0.0127953589 0 -0 -1
3.335771542 -12.4539097 0.4366990103 -0.169711411 0.1061008796 0.979765594
1.810369692 11.76096763 0.1380390972 -0 0 -1
-3.029585641 29.72383895 9.227865219 0 0 -1
-15.38340429 28.87033404 1.637263512 -0.7946475148 -0.5773612857 -0.187587887
-12.90891558 10.45111921 2.263229846 -0.4067370615 -0.9135452634 0
-18.80417717 -2.063595524 6.825351715 0 0 1
13.45266123 2.007462403 0.119933866 0 0 1
28.27285795 17.6230998 10.60284615 0 0 -1
-7.52420329 14.0010385 1.655141659 0.9945216179 0.1045306027 0
-4.109703824 28.39884648 2.901393414 0 0 1
-18.23730707 26.2494461 18.50826073 0 0 1
0.6941612754 22.41486812 0.05824649896 0.004589740657 0.99998945 0
-3.399740316 28.25118518 2.901393414 0 0 1
4.39278377 11.42053458 0.2264118195 0 0 -1
18.7664936 -31.50219853 0.4222315291 0.1343757063 -0.3617007732 0.9225593209
-6.326339233 -3.418474674 3.882385796 0 -1 0
1.940869268 7.682181231 0.1380390972 -0 0 -1
-16.59605389 25.04955759 2.654085462 0.9942821264 0.1067850603 0
18.26336028 26.37759381 0.119933866 0 0 1
20.12145996 5.658266565 2.610185047 1 -0 0
16.03315883 16.91902144 4.456614971 -0 0 -1
27.96499115 18.29729989 5.834989259 0.9998878241 0.01497502439 0
-9.009423689 2.650111301 7.945301056 0 0 -1
13.47760254 -7.491672743 2.294823081 0 -0.1521854848 0.9883519411
-24.80897522 19.53867516 1.558311336 -0.7439440489 0.6413721442 -0.1875875145
21.10738945 18.31117469 11.38990063 1 -0 0
-5.618990469 22.66776606 1.626517114 -0.5243369937 -0.3059450388 0.7946497798
-9.410280228 -3.281773679 4.451827171 -1 -0 -0
-2.236004405 14.79415267 10.488584 0.8090171827 0.587785093 -1.533788708e-07
20.7281117 -6.419529379 3.919429247 0 0.912189424 -0.4097688198
21.76243803 28.72110558 3.191495358 0 1 0
9.822424732 29.5265274 0.8760134115 0 1 0
16.00749064 15.57235209 0.3613967896 0 0 -1
23.47180354 22.62275524 0.119933866 0 0 1
-23.23560842 -17.34984581 0.8575735619 0.231095627 0.1105534956 0.9666296244
-20.38981996 8.607388749 0.4320265893 -0.9999544621 0.009541166946 0
11.75667537 -20.44179953 0.4749764672 0.1699248999 -0.09815173596 0.9805567861
7.120442033 -4.513369972 0.106870532 -0 0 -1
-17.10066623 25.84743704 14.12481905 0.8346088529 -0.5508430004 0
12.2193978 20.49678379 0.0127953589 0 0 -1
-4.564793726 -12.93642315 0.119933866 0 0 1
5.664813377 11.54046231 2.288673219 0.7730104646 -0.6343933344 0
-21.19959884 27.9550984 4.575706268 -0.937458396 0.3480973244 0
10.85229573 28.91036676 6.004599571 -0 0 -1
15.86626097 -23.75918679 0.6083390961 -0.172022149 0.2396184057 0.9555057883
-8.632100807 -3.418474674 4.387737648 0 -1 0
23.37082301 15.34659809 12.64898797 -0.3912016327 -0.4967295893 -0.7747393502
9.026598586 -6.021788503 1.786716535 0.0580567494 0.6042822003 0.7946523428
-7.016048933 13.12284229 8.522030354 -1 0 4.015055766e-06
10.81072678 -1.242894581 0.119933866 0 0 1
19.96432311 29.39748638 0.119933866 0 0 1
-2.534943057 28.37924831 0.7680690289 0 0 -1
13.12284771 -12.28051051 0.3620823862 -0.0238008257 -0.09784116596 0.9949173927
0.9459786286 1.418079021 0.106870532 -0 0 -1
-6.574899008 11.64698513 0.5748562724 -0.8090172049 -0.5877849766 -7.452211441e-07
18.01809195 -24.08410192 1.024562488 0.2351586968 0.5152398944 0.8241530657
18.75252345 -8.935206103 0.3059425056 0 0 1
18.90512292 11.93352752 0.6970701218 0 0 1
-13.59282765 27.35930671 0.4571249485 0 0 1
16.33164678 22.32572885 0.3883113112 -0.003382499868 -0.9999943022 0
-18.79965375 -20.30407189 0.1342335566 0.01649362221 -0.01008359436 0.999813199
-9.679448819 6.09801917 5.323387623 0 0 -1
22.02480127 24.35559158 10.0946312 0 0 1
-8.844741672 4.00073613 6.635417938 0 0 -1
13.96025467 -4.707782435 7.255764815 1 -0 0
18.60610771 26.76248345 7.895020877 -1 -0 0
15.87772551 -17.98850484 0.3224346454 0.1521052271 -0.1600536704 0.9753187895
5.518380733 -2.169039197 0.106870532 -0 0 -1
22.54913471 14.7224744 0.119933866 0 0 1
20.96003926 28.72110558 9.26119127 0 1 0
5.199584938 10.92348444 3.242779404 0.6343949899 -0.7730090484 0
-15.31128359 -30.83788548 1.092721615 0.4266842604 -0.1165442392 0.8968600631
-15.65732425 26.75237887 7.539448726 0.9911412758 -0.1328120793 0
27.16454672 10.74800694 0.119933866 0 0 1
24.20584759 -18.54461399 0.8827792358 0.3118639886 -0.0008687098743 0.9501263499
-7.716890547 13.31917565 5.656892989 0.951056142 -0.3090181519 0
-4.616130447 10.3980268 10.37836454 -0.3090187426 -0.9510559411 0
-10.27651378 22.12640426 0.0127953589 -0 0 -1
19.36336675 -20.70100988 0.1399952125 0.02400683798 -0.01125946268 0.9996483922
-4.136496136 9.746955828 0.0127953589 0 0 -1
-3.557620127 26.2472652 9.248104095 0 0 1
-7.126784845 24.5166067 9.248104095 0 0 1
3.336855645 26.12444158 2.091829538 0 0 1
-6.24565853 10.94894403 0.119933866 0 0 1
-18.18395965 -2.592508716 2.769965649 0 -0 1
-24.23857101 6.119096422 0.2598593237 -0.7420315742 0.6703649759 0
-8.647875784 9.605256206 0.4634335339 -0 0 1
18.60610771 24.48026255 1.021504736 -1 -0 0
-16.16976988 17.73286484 12.85317135 0 0 1
-11.15850609 6.422175937 2.705819368 0 0 -1
5.634418893 9.794040949 0.1380390972 -0 0 -1
-2.456703467 -9.07451836 0.218333263 0.9999166018 -0.01291381653 0
-5.134120249 24.95272446 9.360002771 0 -1 0
19.38134277 14.70348992 8.552846909 0 -0 1
-11.12796163 4.44619053 4.029289722 0 0 1
17.30484509 16.87839104 4.456614971 0 0 -1
18.40664342 4.764496297 10.60774517 0 0 1
8.953783569 29.55100378 9.912611961 0 0 -1
18.08532191 -31.60417294 0.5099661468 0.186316371 -0.4290395677 0.8838615417
20.43998849 -23.65445661 0.3740536219 0.1571357846 0.2392884344 0.9581490159
-9.743087527 -19.24208349 0.2570672107 0.0629824996 -0.120224975 0.9907467365
-19.39293374 3.985147984 2.1682477 -0 -0 -1
29.97399615 16.3606079 4.457629681 -0 0 1
2.631497429 28.24099205 7.145284986 -0.2483098093 0.9686807022 0
-9.227604245 -23.38481735 0.1295647323 -0 -0 1
22.87371124 29.67285919 8.529913733 0 -1 0
-18.74409818 7.895046361 0.4571250081 0 0 1
-12.40760601 2.87696841 7.958887577 0 0 1
-8.032933861 1.984460592 0.3193110683 0 1 -0
-7.115397697 27.9811554 6.274018029 0 1 0
-17.31276987 17.4104731 11.14060688 0 0 1
22.80455993 27.50551403 8.052221298 0 0 -1
0.6730406391 -4.612301242 0.119933866 0 0 1
-8.296974289 -9.591179808 0.3746579353 -0.1681900471 0.07091308385 0.9832006097
-3.581312939 17.39038519 1.570741579 0.9815568924 -0.03682076186 0.1875910312
-8.115743468 8.405174045 0.119933866 0 0 1
0.6821755726 0.3332140849 1.521984339 0 0 1
20.77022954 19.17290483 0.119933866 0 0 1
27.05226388 21.74535374 0.119933866 0 0 1
-4.518733198 25.77645276 2.898499012 0 0 -1
3.872661192 26.10668453 0.119933866 0 0 1
-0.9939019377 5.591069213 0.4571249783 0 0 1
20.52288382 17.87190967 7.478797913 0 0 -1
15.63241374 -21.84987957 0.1818290846 -0.0308021903 0.05243192613 0.998149395
20.16964434 -2.525754432 0.119933866 0 0 1
18.36763553 -5.378131949 1.159927512 -0.5926497579 -0.1315271705 -0.7946488261
17.9038353 -4.671425029 1.56635842 1 0 0
12.55036739 12.45076245 0.119933866 0 0 1
-17.78338378 29.71523319 0.119933866 0 0 1
19.83025813 -6.180594357 10.12088076 -0.0002233501145 -0.9997901917 0.02048333362
5.26803415 14.58268144 0.119933866 0 0 1
23.82197657 -5.692854357 9.01984024 0 0 1
-19.56959111 16.92330487 3.533244371 0 0 1
-11.11497824 0.3388490943 0.119933866 0 0 1
-16.40499974 27.57916917 10.40707415 0.9588012099 0.2840779424 0
22.9354307 5.454634661 7.058472475 1.130308789e-07 0 -1
-8.114598862 6.530756358 6.715772629 0 0 -1
-17.4115908 12.91677533 1.515234362 0.4890782833 0.3596254885 0.7946521044
1.118038501 26.24879383 0.01279529929 0 0 -1
-22.2487837 22.0401379 0.4634335041 -0 0 1
19.38440539 4.098018318 8.031108856 0 0 1
-19.8930809 18.2263503 8.586727142 0 0 -1
3.055513202 29.90849844 0.119933866 0 0 1
-20.83870322 28.06704435 12.06330708 -1.746376098e-06 1.487590043e-06 1
-3.156802122 25.06612997 7.117674351 0 0 1
-4.644303675 10.40718084 4.431111678 -0.3090187359 -0.9510560062 0
-7.580336053 21.70973551 0.4634335339 -0 0 1
-7.001525879 24.85471679 10.83262533 1 0 -0
22.82293764 -13.94042551 0.559263515 -0.1316366345 0.0143061243 0.9911947846
3.104611874 29.01777273 8.571316015 -1 -0 0
-0.7473484361 17.22350069 0.119933866 0 0 1
3.104611874 27.62483377 12.65209674 -1 0 -0
25.42129553 18.50534573 8.527029596 0.02054994854 0.6251279457 -0.7802517321
-11.55361519 6.295084953 0.4670573846 0 1 0
-21.09665813 -3.186883392 1.951877594 0 0 -1
12.6098702 31.64911577 0.119933866 0 0 1
-7.016048908 13.76153188 0.2352595968 -1 -6.089233909e-06 0
12.03793836 -5.58954525 5.70648201 0 -1 0
25.05204305 4.169338466 10.60774517 0 0 1
24.9023878 7.639062881 1.950680658 0 1 0
26.10242051 31.70165447 0.01279531419 0 -0 -1
-9.47766896 21.79770836 0.4634335339 0 0 1
26.05600548 23.88732117 3.892480368 1 -0 0
20.41692473 25.01551118 0.1296710968 0 0 -1
-16.54345423 28.13505492 3.009815747 -0.7767402765 -0.6298210745 0
-3.875349303 10.54745497 2.869969368 0 0 -1
-11.48193513 17.37285455 0.2575170994 0 0 -1
13.47775861 -3.58954525 6.837473098 0 1 0
-11.75822168 5.044088847 0.119933866 0 0 1
22.72002583 -0.2267557431 0.4634335339 0 0 1
-13.19993476 -10.30747274 0.4507998124 -0.04682639986 -0.007508598734 0.9988748431
20.96305222 -3.670414012 6.440646315 -0 -0.178739816 -0.9838963151
4.573605092 1.359239374 0.1759618223 0 0 1
-11.76425537 -7.403739868 0.119933866 0 0 1
16.15388489 16.2620869 10.93934198 -1 -0 -0
28.72101906 18.19177912 6.697543462 0.03285590559 0.9994601011 0
20.14857615 -19.11792124 0.2061166892 -0.09488017112 -0.02425239235 0.995193243
8.223193439 27.02319977 0.09182953835 0 0 -1
3.170499686 -31.05123774 0.6747110961 -0.2205714193 -0.08159200564 0.9719521403
17.93979009 13.30400658 10.6140132 0 -1 0
-16.46676401 17.1937387 9.465520859 0 0 1
27.98078346 5.325689382 0.2752486488 1 -0 0
-2.393267942 25.74371777 0.788308382 0 0 1
-22.97465091 -22.86476774 0.3151042632 0.08329733461 0.03629278764 0.9958636165
-16.27130565 27.68898618 2.707553238 0.9588010311 0.284078449 -0
-20.08858819 17.95705214 6.041955948 0 0 -1
-10.59943287 20.06568154 0.119933866 0 0 1
-8.160823679 31.78686756 0.4634335637 -0 0 1
13.50116368 -14.42103474 0.275237272 -0.1458864808 -0.0420066081 0.988409102
14.85185242 -6.33809186 3.106365806 -1 0 0
20.58260836 14.34052649 5.05463057 0.6115463376 -0.7912085652 0
18.98040204 -14.20555191 0.1981268398 -0.1269007772 0.1233733222 0.9842129946
-9.188097169 11.02270199 2.582981949 0.7431445703 -0.6691309598 0
-24.18956854 19.48129142 1.273776557 0.2349064201 0.5597733259 -0.7946525812
-12.65230695 -13.24148398 0.4476102496 -0.1860737354 -0.05561069399 0.9809607267
-2.665264619 14.81834406 8.407309532 0 0 -1
-20.14355073 25.83740163 13.07286884 -0.8835787177 -0.4682826102 0
14.2940987 18.76804611 0.01279532909 0 -0 -1
22.51070782 -3.650889874 2.404975284 -0 1 0
9.913144291 -0.1391347995 0.119933866 0 0 1
21.128687 -17.90196684 0.4557933321 -0.1333806068 -0.2053883672 0.9695490003
-5.682871187 25.695638 9.248104095 0 0 1
-17.50167923 24.34330281 2.436120455 -0.5053235087 0.8629299691 0
-22.95724293 -19.20355388 0.932959358 0.1796630919 -0.1836410165 0.9664352536
6.000072648 26.28747428 6.025217056 0 0 1
5.941040703 14.70472123 1.413252354 0 0 -1
18.6464038 30.91838727 0.00648675859 0 0 -1
-23.6528755 -3.439027113 1.483035717 0.884845674 -0.4264493883 -0.1875877976
-17.97645659 17.02951169 5.230336666 0 0 1
-10.07929559 4.503746892 10.94177437 0 -0 1
8.484289866 22.95517188 6.728251012 0.2483073873 -0.9686812858 3.256794301e-08
-7.809586588 23.7790287 6.419342995 0 0 1
-2.393849029 13.32248136 0.119933866 0 0 1
-16.37992846 27.93338336 5.124317973 0.776740253 0.6298211217 -0
-13.74892924 4.712793755 0.119933866 0 0 1
-15.78715897 -5.658071617 0.1812025294 1 0 0
22.54695896 21.62565854 0.4634335339 -0 0 1
11.19847154 4.335301876 0.1479863815 0 -1 0
14.94942093 -4.877650825 4.74793231 -1 0 0
6.388298909 31.41578971 0.119933866 0 0 1
30.47989006 2.758601574 0.119933866 0 0 1
-2.97667781 12.41600035 9.778364182 0 0 -1
19.35551254 7.639062881 5.593829162 0 1 0
11.99490128 29.05141982 0.09182953835 0 0 -1
-18.68219609 17.44101606 12.82246685 0 0 -1
-13.88614082 1.091645108 0.2297258246 -1 0 0
22.21731668 -6.182648707 10.04654603 -0.0002234191155 -0.999790217 0.02048333203
2.029096147 7.0771416 0.160103746 0 -0.5408183932 0.8411393762
18.03289747 31.14405461 0.00648675859 -0 0 -1
-14.97017415 5.808999961 0.119933866 0 0 1
-17.12834018 18.04515405 11.13205433 0 0 -1
-19.08868939 0.6275560057 0.4634335339 -0 0 1
-5.408872668 13.65642312 9.800899506 0 0 1
4.355104341 12.68552168 0.1380390972 -0 0 -1
-15.86941204 18.01446025 5.193865776 0 0 -1
2.00657846 14.21492224 0.2746094975 -0.006867278709 0 0.9999763807
8.051993129 -4.185963818 1.265612535 -0.650708437 -0.7357919216 0.1875867099
-4.402974281 29.42652683 7.813857079 0 0 -1
-5.401076772 -3.365595249 1.311438619 0.9279077649 0.322176367 -0.1875887066
-19.14171862 13.58156726 1.181612846 0.604966104 -0.05044285581 -0.794651866
23.92380166 25.40071219 0.1296710968 0 0 -1
14.88619444 -4.953715093 5.345318792 0.2655533254 0.9640961875 0
25.72954588 -7.67966032 0.5025516782 0 -1 0
1.204815944 17.05193882 0.119933866 0 0 1
4.743633104 6.944921065 0.172022815 0 0.2432141758 0.9699726105
4.982988825 19.66095753 0.119933866 0 0 1
11.15292407 23.51100175 7.933229923 0 0 -1
-16.71563914 16.88782198 11.97437668 0 0 -1
23.0227948 3.998384237 5.801475394 0 -1 0
-22.50622328 27.38075203 0.119933866 0 0 1
-7.164170206 28.42239093 9.227865219 0 0 -1
5.814623411 22.27082419 10.03429386 0.2483131332 -0.9686797893 -1.083571842e-06
-9.484441047 11.98802089 0.119933866 0 0 1
9.111304644 7.318991918 0.2549852485 0.008747105631 0 0.9999617188
-3.551699168 10.5661048 2.862714291 0 0 1
5.288128484 12.26863224 3.208127499 0 0 1
8.384020817 28.76375343 4.025217056 0 0 -1
-2.962283943 25.7017498 2.901393414 0 0 1
27.98078346 6.917791014 9.496785531 1 -0 0
-7.368732452 -4.942520329 -0.1163885925 -1 0 0
26.30150985 9.713719648 0.119933866 0 0 1
13.79661353 -7.056269824 0.119933866 0 0 1
-19.4146489 28.49439271 12.32702039 -0.3026004136 0.9531174898 0
9.748749976 22.39156474 0.6037628464 0.009564418346 0.9999542832 0
26.85144909 12.83151263 11.68221855 0 0 1
-11.99392003 3.004280729 2.705819368 0 0 -1
-3.264459422 -3.785429154 0.119933866 0 0 1
-4.259314482 23.44793873 9.248104095 0 0 1
21.42099767 14.74527471 7.538923969 0.611543119 -0.7912111027 0
25.83692275 15.46842017 0.3613967896 0 0 -1
6.262704048 23.50146817 0.119933866 0 0 1
27.25879051 13.08380599 12.65096283 -0 0 1
-1.251866328 31.90223469 0.01279531419 -0 -0 -1
-15.05931462 -3.014437675 6.810797493 0 -1 0
-6.333599465 24.13273781 0.788308382 0 0 1
-14.36928655 -1.633950472 6.793912006 0 1 0
-24.37930156 0.121734338 1.152037463 0.01550940797 0.6168913245 0.7868955731
-7.521478877 13.97511798 4.967315935 0.9945217508 0.1045301402 -0
-7.883424052 6.588801868 0.1642606258 0 0 -1
-17.04202121 18.79579926 0.3092176283 0 1 0
-3.34702174 27.78256701 5.011584282 0 0 -1
-15.91364996 18.59287789 12.85317135 0 0 1
5.475832501 -7.929551066 -0.1446956694 -0 -0 -1
10.05404868 30.2320385 0.4908235335 0 1 0
3.766234901 22.77413065 0.119933866 0 0 1
-21.35440914 28.61937991 5.557493975 0.4994452894 0.866345346 -0
-3.905928088 21.52092814 0.4634335339 -0 0 1
4.032752376 25.5672499 13.5288372 0 0 1
-22.83954391 7.118382128 0.09348235954 -0.004591152538 -0.9999893904 -0
6.804168596 -25.26518063 0.4842904806 0.1159833819 0.1245150566 0.9854156375
-9.540027164 16.65614702 0.119933866 0 0 1
13.5709134 6.916215988 0.01279532909 0 0 -1
25.53898474 24.17400416 8.052221298 0 0 -1
5.074703867 -12.20925155 0.5068573086 0.1028500125 0.2017360181 0.9740248919
4.208445533 19.04861595 0.119933866 0 0 1
-19.48616975 29.73978207 1.956564423 0.3025993705 -0.9531178474 0
-6.405788951 2.473121405 10.03153609 0 -1 0
19.13859459 3.998384237 4.60866413 0 -1 0
-11.99049115 -1.633950472 3.32345457 0 1 0
-6.880515 23.61297271 10.66285896 0 0 1
-16.29809176 -6.812982224 0.3059425056 0 0 1
21.12134594 -3.74161911 4.621013031 -0 1 0
1.191485598 10.55589021 1.213496869 -0.4911224544 0.3568282127 -0.7946524024
7.638036747 26.477602 9.933229446 0 -0 1
-1.655951977 13.23711174 1.044650192 1 0 0
-6.199946404 3.507017595 5.252070888 1 -0 0
22.31835736 -5.956323027 9.814888074 0.0002223779688 0.999790132 -0.02048337898
-13.92052742 -0.4829930975 0.0127953589 0 0 -1
-10.81150868 3.806493969 2.719405174 0 0 1
7.998595741 -15.20404679 0.880216927 0.01964730211 0.331889838 0.9431135654
-9.876422789 4.200163293 9.257332802 0 0 -1
2.190395596 18.35036751 1.211168395 0.6070664525 0 -0.7946510911
16.14948449 14.67011156 12.55098057 -0 0 -1
8.868197469 24.00158985 11.86661625 0 0 -1
3.779598236 -9.588280817 0.4268423816 -1 0 0
-15.48942369 -8.695963992 0.119933866 0 0 1
4.526499152 5.849670148 0.119933866 0 0 1
13.87562194 -5.58954525 7.302943972 0 -1 0
19.94296694 17.12368412 0.119933866 0 0 1
12.49926927 13.34475121 0.01279529929 0 -0 -1
-7.331694305 25.53787048 1.486639261 0 0 1
-2.577239969 27.49076215 9.9442873 0 0 -1
-4.967817435 32.77377319 0.03879223821 0 1 0
-15.78041634 5.454092026 2.113575705 0 1 0
-6.385736585 25.08374058 5.031823635 0 0 1
25.3118533 13.60145953 0.119933866 0 0 1
-6.199946404 3.821002234 6.317838535 1 -0 0
13.01738167 23.99068065 5.571355197 1 0 0
2.309035432 10.65428222 0.1380390972 -0 -0 -1
22.95795164 28.56827927 10.15828366 0 -1 0
2.993714916 -24.80080611 0.5844247762 -0.03398761526 0.218784973 0.9751809835
6.137628419 26.04109573 13.84506078 -0 -1 -0
-6.065293151 29.66462114 9.946435928 0 0 1
5.489384603 25.39156369 8.004599571 0 -0 1
17.39449501 26.67255393 4.899796688 1 0 0
-17.737268 17.29371996 3.533244371 0 0 1
19.05378878 8.215143522 0.119933866 0 0 1
6.758880351 25.80717153 11.86661625 0 0 -1
6.577142753 26.93795501 4.025217056 0 0 -1
13.72844749 10.18076228 0.01279532909 0 -0 -1
3.070736827 16.85205841 0.3715990595 0 -1 -0
-3.429099563 12.64701462 1.469124556 0 0 -1
5.594087383 13.89150447 0.119933866 0 0 1
24.65737131 11.77340107 0.4634335339 -0 0 1
-7.757885156 26.12436714 2.182822227 0 0 -1
27.39430142 7.044280872 0.119933866 0 0 1
4.186318691 10.57787007 0.2895787346 -0.006867279165 0 0.9999764391
-14.96451271 7.950324396 0.119933866 0 0 1
-10.16018243 6.295084953 8.504216194 0 1 0
25.4651413 9.725139708 0.0939645452 -1 0 0
27.98078346 6.450328739 8.907022699 1 -0 0
26.66939024 29.85527247 1.637492736 -0.5236787796 0.8310058713 0.1875890791
20.12145996 4.412741678 2.135569433 1 -0 0
2.700269162 -15.99047906 0.617197855 -0.1031231806 0.02321603894 0.9943976402
-19.548666 20.90708107 0.006486818194 -0 0 -1
18.93009681 26.72877474 6.073111057 0 0 -1
24.82175849 30.0042572 0.02529205996 0 -1 0
-17.78030232 0.538484301 0.0127953589 0 -0 -1
-16.33288814 24.54916661 3.317139351 0.834610343 -0.5508406758 0
-21.14236351 28.78063264 4.898012735 0.6871695518 -0.7264969945 0
-9.693015738 2.473121405 8.6303345 0 -1 0
11.53911553 24.77997455 8.004599571 0 -0 1
20.7184422 -12.38501335 0.119933866 0 0 1
26.8213405 32.46448135 0.5083063716 0 -1 0
-9.416712761 -1.715064792 0.2677061659 -1 -0 0
28.00992195 -2.897264971 4.314083497 -0.002584359698 0.9999966105 0
-3.457672115 25.13259103 0.06973695755 0 0 -1
28.67843216 22.54206997 0.4634334743 -0 0 1
-5.104307026 8.312790367 0.119933866 0 0 1
-21.47026378 28.24432038 0.119933866 0 0 1
-20.89134016 -2.891825943 6.007264137 0 0 -1
-7.387449408 3.551630841 4.029289722 0 0 1
26.16044426 4.057013017 7.731735494 -1 -0 -0
-20.58689361 -3.1815238 0.3309598431 0 -1 0
13.01738167 25.49181758 8.904195056 1 0 0
25.39289475 18.37323782 10.92046343 -0.7856271863 0.6187002063 0
26.80529383 13.51580979 5.794623414 0.9998877048 0.01498887967 -0
-19.72397891 6.324971177 0.119933866 0 0 1
2.569004509 -11.30966974 0.2618638723 -0.05346548557 0.06252332777 0.9966103435
-20.55270513 -1.313430215 6.010479927 0 -0 1
-8.445983185 3.711311516 5.323387623 0 0 -1
-7.824117166 6.752793418 9.257332802 0 0 -1
-12.48045917 3.965266699 4.017849445 0 0 -1
8.324604665 30.58663858 0.119933866 0 0 1
-18.55446417 14.3638303 0.119933866 0 0 1
-8.219808578 2.334970951 5.858187627 1 0 0
-22.89290027 9.733870367 0.09697404288 -0.003379442496 -0.9999943376 -0
13.49116035 25.01665052 3.10142257 0.9686790179 0.2483162321 0
24.93982452 -21.79013421 0.2045790466 -0.04804548621 0.00533650117 0.9988309145
13.96025467 -4.845493277 2.339596381 1 -0 0
10.47727066 22.82400324 0.119933866 0 0 1
20.07792315 17.90482628 12.65096283 0 0 1
-13.7265093 -2.966026545 2.533308308 0 -1 0
24.66651327 9.402293606 0.119933866 0 0 1
-3.746488815 12.85049444 4.24102354 0 0 -1
-11.44219752 5.57237755 7.945301056 0 0 -1
20.0507713 -9.046409543 0.3059425056 0 0 1
8.571523817 22.95293427 8.906831387 0 -1 0
-20.76978493 30.14092667 0.1196275957 -1 0 0
26.05600548 27.8129622 8.126104689 1 -0 0
4.172740318 14.89142803 3.79691267 0 0 1
18.0789455 12.60845933 7.478797913 0 -0 -1
-18.46762764 18.79579926 10.97507376 0 1 0
-6.341173579 12.24874419 8.407309532 0 0 -1
-20.54879668 2.233494209 0.119933866 0 0 1
23.05744745 -8.835407752 -0.1446956694 -0 -0 -1
23.85580398 -0.6362074525 0.6970701218 0 0 1
18.60610771 26.95845641 3.529423373 -1 -0 0
4.394935008 -0.5700193204 0.119933866 0 0 1
-1.942783104 -10.53192676 0.119933866 0 0 1
19.84345561 26.72117239 4.114890099 0 0 1
-23.4086323 -6.047832427 0.119933866 0 0 1
29.17897722 11.58716478 0.119933866 0 0 1
-6.449450624 -9.926456948 0.4104921653 0.02714955993 0.08716573566 0.995823741
4.012964261 32.75401162 0.6970701218 0 0 1
-16.64540245 28.26078471 5.617654638 -0.776740315 -0.6298209977 0
11.69493093 24.68189358 13.41409648 0.15589118 0 0.9877741933
2.259632504 8.709465897 0.119933866 0 0 1
1.745151424 12.63641989 3.79691267 0 0 1
-7.039368791 -1.480044007 0.9036727725 0 1 0
-5.277353565 14.54927749 4.24102354 0 0 -1
-8.182976387 24.16332013 10.61351585 -0 0 -1
-15.65467779 5.454092026 4.467666696 -0 1 0
-20.02936737 24.58959255 7.663369179 -0 0 -1
-2.23817873 27.9279523 6.118225914 1 -0 0
-16.95039813 -2.719528579 0.254318456 -0.9883053899 -0.152487427 0
-2.173836953 14.70858644 7.545434033 0.8090171806 0.5877850889 3.464174498e-07
-2.857487317 15.46255032 8.635147847 0.3090165211 0.9510566712 0
5.51807806 11.36166482 2.596934368 0.7730104327 -0.6343933344 0
-22.41758766 29.85849808 0.119933866 0 0 1
4.026030732 23.74324812 11.91261196 0 -0 1
21.05415334 28.82017196 0.119933866 0 0 1
26.10432119 -7.383933217 0.119933866 0 0 1
16.61928368 4.00564937 2.240438085 1 0 -0
-18.09490365 -1.747652056 5.200629234 0 0 1
8.763413491 12.07776949 0.2580284063 0.008747262006 0 0.9999617934
17.06088473 7.639062881 5.729642799 0 1 0
-20.3304828 28.18946149 11.75511929 0.6810190798 -0.7199951395 0.133491579
-23.06582113 16.86369921 0.6970701218 -0 0 1
24.22177131 16.70359313 8.793750763 0 -0 1
4.064187333 -8.910146862 0.3059425056 0 0 1
-8.160740824 6.767956532 4.210608006 0 0 1
25.72556861 -6.974052991 0.119933866 0 0 1
27.2072919 24.99285507 6.166492991 0 -1 0
-2.777016372 11.69222747 1.491659641 0 0 1
4.082976442 27.39233029 4.025217056 0 0 -1
-15.90822092 5.60231781 4.757355566 -0 1 0
-21.70750129 26.92139901 1.933152392 0.9966810346 0.0814063251 0
3.159643508 12.72522558 0.1380390972 -0 0 -1
-3.253630334 -5.532175694 -0.1410840601 0 -0 -1
21.24446903 -24.6375335 0.4504869523 0.1025923118 0.167451933 0.9805277586
-8.05545739 25.06087057 11.32274246 0 0 1
-15.77956235 5.454524221 8.397024155 0 0 -1
5.947772298 5.470902092 0.4634335041 0 0 1
9.560893664 23.82071069 6.004599571 -0 0 -1
-15.02490694 -1.633950472 1.29407139 0 1 0
18.63652992 13.47337436 1.876841599 -1 -0 0
-10.43073887 -7.161668777 0.416165615 0 -1 0
-5.752041531 4.568778066 2.823998235 -5.823165452e-07 0 1
-13.54935716 15.87886143 0.2575170994 0 0 -1
8.977048215 30.0042572 0.4322947587 0 -1 0
5.185977243 4.656596982 0.4634335041 0 0 1
6.560290535 27.32404722 11.86661625 0 0 -1
9.567087692 23.40752347 2.071211576 -0 0 -1
-7.495508014 6.468887147 9.450092316 0 0 1
28.98912736 -3.532888582 -0.1857275428 -0.002584085812 0.9999966621 0
-24.06140998 30.14930683 0.006486788392 0 0 -1
-3.804861563 -1.496345247 0.119933866 0 0 1
30.45084241 28.10189463 0.6970701218 -0 0 1
19.73047489 -0.7975842953 0.08744589874 -1.282179072e-07 -1 0
-7.487248905 5.67684562 10.80395674 -0 0.001311473199 0.9999991059
2.878686707 26.49591548 11.44444289 -0.9686798564 -0.2483131546 -3.781677905e-08
-15.95982539 7.916217312 0.4634335339 0 0 1
3.570095041 29.5265274 4.546863765 0 1 0
25.59844589 32.70002623 0.4447212912 -1 0 0
-6.199943066 2.937393803 0.873482527 1 0 -1.980696189e-06
26.04531565 23.7501049 8.752242914 0 -1 0
-20.47684859 -3.088139913 1.960114002 0 0 1
26.80916354 3.998384237 4.480332891 0 -1 0
7.260910103 29.10110556 4.025217056 0 0 -1
10.04804698 30.0042572 0.4346716512 0 -1 0
12.95678913 -6.347717225 2.47096826 0 -0.1521854848 0.9883519411
-2.489388431 2.729496889 0.02660317987 0.9999052286 -0.01376896056 0
-24.21241156 -15.66470755 0.7910619197 -0.1286442131 0.1357323229 0.982358098
26.9849467 -21.79359576 0.4037796925 -0.1069241837 0.03237100691 0.9937400222
11.56389152 -3.58954525 0.8702597062 0 1 0
21.01446559 11.09816326 0.0127953589 0 -0 -1
-17.46331267 14.07771009 1.742604079 -0.3088885248 0.9324156642 0.1875869483
26.8022357 27.47835541 6.860960155 0 1 0
5.97039815 25.80405563 7.933229923 0 0 -1
-21.30450555 26.25055424 4.709203644 -0.8835799098 -0.468280375 0
-18.88117688 29.25335284 5.295456411 0.1135840792 0.9935283911 0
-20.17966301 24.97640873 4.816414859 -0.6429104738 -0.7659413191 0
-15.22978842 4.545419693 9.670269264 0 1 0
18.4581979 -9.350225245 -0.1446956694 0 -0 -1
18.25727246 31.51198017 0.119933866 0 0 1
-20.15217935 29.16985146 4.365990593 0.3025990427 -0.953117907 0
-8.16441745 25.39370732 9.897092819 -0 0 -1
-16.89621833 2.449699838 19.50387955 0 0 1
-14.17040497 24.63332134 0.6939612888 -0.9999943376 0.00338147115 0
6.720430098 29.5265274 8.373067545 0 1 0
-6.613371208 26.23150691 8.529533386 0 0 -1
-13.72770351 8.306691729 0.119933866 0 0 1
-11.45833948 22.69641231 0.01279529929 0 0 -1
10.51215159 10.67896959 0.119933866 0 0 1
-6.404720835 13.38294357 1.469124556 0 0 -1
-16.58669551 25.35613101 5.452390957 0.8346108593 -0.5508401394 0
19.6303663 -3.650889874 4.250755182 0 1 0
10.65465183 -4.594924745 0.07144093513 0 0 -1
-0.9804677117 14.38604939 0.2540961347 -0.006867278686 0 0.9999763778
27.32324471 14.00159654 4.456614971 0 0 -1
24.96669058 -18.82647917 0.6100500642 0.3363557458 -0.0767108053 0.9386054873
20.05826286 3.998384237 7.134220565 0 -1 0
-21.22459329 -1.1815238 0.101434398 0 1 0
29.34138225 5.889522361 0.119933866 0 0 1
25.88480949 -4.814271566 0.7840371144 1 -0 0
-18.00071716 5.566922284 2.38347329 -1 0 0
12.15071504 -7.436943054 -0.05623791499 -0 1 0
-9.170087034 5.876392811 6.635417938 0 0 -1
19.04092175 22.92846152 0.119933866 0 0 1
11.23476608 23.44532548 6.025217056 0 0 1
4.679967026 28.48305675 9.933229446 0 0 1
15.03775002 -20.16344182 0.1663896754 0.02979863621 -0.003252506955 0.9995505214
25.15140749 17.74857099 10.37577634 -0.7856160402 0.6187143326 0
-16.66856034 24.4290849 0.876769217 -0.5053240657 0.8629296422 0
21.97523937 -19.38707922 0.6515114586 -0.2436178774 -0.3414152563 0.9077919126
-21.16450795 10.0510741 0.01279529929 0 -0 -1
-21.02339174 -3.07486884 1.960114002 0 0 1
-17.44455352 16.9065698 12.82246685 0 0 -1
-17.96151924 5.260330069 11.01517792 -1 0 0
-5.253794029 18.18515769 1.686206094 0.7913397551 0.581887722 0.1875848621
16.58923813 13.49648094 3.838461431 0 -1 0
-15.82779698 27.34983132 6.038162199 0.9588015079 0.2840768695 0
27.48447546 -3.536777084 1.433404672 -0.002584217288 0.9999966466 0
-15.78715897 -6.799403788 0.2331687536 1 0 0
23.26966195 -7.864838316 -0.1446956694 0 -0 -1
0.4517828421 -8.063078767 -0.1446956694 0 -0 -1
27.15492927 27.0207054 2.114890099 0 0 -1
29.77039982 16.1600895 8.94511949 0.7856156826 -0.6187148094 0
24.34010506 6.782284827 3.416265485 -1 -0 -0
-19.73006033 16.79579926 3.822478248 0 -1 0
-2.665414339 25.67120222 6.419342995 0 0 1
5.513642181 17.81357563 1.1680382 -0.2443755567 -0.5557052493 -0.7946523428
-22.7831837 11.39797028 0.667485137 0.9999942183 -0.003385273274 0
8.046785468 27.67008986 2.091829538 0 -0 1
12.03600131 4.335301876 0.09266541141 0 -1 0
-7.963014526 9.916751399 0.6970701218 -0 0 1
5.748239112 2.204557335 0.106870532 -0 0 -1
18.77534959 5.305733296 0.119933866 0 0 1
-1.627635874 22.34416823 1.789922641 0.513051033 -0.324510932 0.7946516275
-19.75584213 22.79812376 1.708279989 -0.9998530746 -0.01714069583 0
-11.63775631 3.370026287 5.341319084 0 0 1
-12.01488068 25.46204881 0.4634334743 -0 0 1
13.01738167 25.02692047 4.388793084 1 0 0
-17.3230043 18.67787314 8.623197556 0 0 1
19.80057342 16.60690935 0.119933866 0 0 1
28.96244433 -12.48597729 0.3954283286 0.08938015997 0.007554634009 0.9959689379
-3.774186591 20.47101581 0.0127953589 0 -0 -1
-4.525123196 14.0650147 9.778364182 0 0 -1
17.62332334 -23.30176386 0.7249960931 0.1148714125 0.4678593278 0.8763059974
-6.621341089 11.81742799 7.025706768 0 0 1
-14.49170853 14.06432033 8.334366618 -0.4780449812 -0.1553261677 0.8644922252
29.21250824 -2.393584006 0.119933866 0 0 1
28.44940959 -17.8312968 0.5530225929 -0.06316678971 0.1269516796 0.9898955822
26.45654159 30.0042572 0.5797900332 0 -1 0
-8.106561661 25.91768471 8.329002996 -1 -0 -0
24.45370642 16.86266302 2.565410332 -0.7856152058 0.6187153459 0
16.38075155 10.87039662 0.4634335339 -0 0 1
12.98376691 26.99602342 10.25279259 0.9686796069 0.2483139768 -8.013973233e-07
22.02840517 10.87193079 0.4634335339 -0 0 1
22.89118403 25.6434636 8.07311058 0 0 1
17.03963151 1.953939488 0.0127953589 0 0 -1
-5.922304498 -29.97731198 0.9722364372 -0.09712830186 0.3893730342 0.9159448147
-2.890335178 27.45433686 5.691708088 0 0 1
25.32475784 7.639062881 1.782226607 0 1 0
19.86770848 -21.09383263 0.1395878444 -0.003830492031 0.03380079195 0.9994212389
18.60610771 25.67784481 9.612739492 -1 0 0
-17.55680028 19.65499399 0.0127953589 0 -0 -1
-16.34107489 22.09347453 0.119933866 0 0 1
-7.803760611 3.177343451 2.719405174 0 0 1
-4.52729632 27.27948144 9.946435928 0 0 1
-7.315571022 27.83248477 7.834096909 0 0 1
-20.17502091 -12.24266079 0.119933866 0 0 1
-5.218964889 22.77708878 0.119933866 0 0 1
18.8932393 -6.676389518 1.519293375 0.4987163246 -0.8462226987 0.1875881553
26.89107949 -19.94186095 0.4490448627 -0.09022113681 -0.03185266629 0.9954122901
19.01239793 25.41729833 0.1296710968 0 0 -1
-3.213465145 23.93551672 9.9442873 0 0 -1
-9.799704712 -18.27212336 0.3291653517 0.08446224034 0.05802033469 0.9947360754
-24.67576555 -12.37950788 0.119933866 0 0 1
-3.319089303 12.16925539 9.800899506 0 0 1
10.62791943 26.99072407 4.025217056 0 0 -1
21.74212429 -2.348831149 0.119933866 0 0 1
-0.1039313042 15.31461536 3.239496814 -0.004490349907 0.4589927197 0.888428688
19.54134225 17.77997894 4.456614971 0 0 -1
0.5591025399 3.280249394 2.921084404 0 0 1
23.19441274 -3.66115846 3.873740021 0 -0.8836395114 -0.4681680799
27.90126438 -6.038893294 2.028120756 0 0 -1
28.63268362 -2.65036043 0.119933866 0 0 1
8.128684525 31.16410176 0.119933866 0 0 1
27.51107012 15.90310807 0.119933866 0 0 1
14.92403713 -5.263901018 2.392075045 -0.821507713 0 0.5701974034
18.02276742 27.47835541 0.839734541 0 1 0
-10.36914952 18.53309489 0.119933866 0 0 1
-19.82433784 18.79579926 0.9159156023 0 1 0
-5.639246011 14.65048326 4.24102354 0 0 -1
24.34010506 4.369066005 9.192692919 -1 -0 -0
4.146545853 29.38619232 14.60606954 0 1 0
-2.45672921 24.23290074 0.06973695755 0 0 -1
18.52286623 -9.052251613 0.3059425056 -0 0 1
6.078685365 11.72166652 0.119933866 0 0 1
-20.48347321 27.3202597 16.70376522 -0.9374568174 0.3481016265 0
-6.974815857 -22.19721412 0.1295647323 -0 -0 1
-18.27003944 28.98614053 0.1172780991 0 0 1
-19.27920947 26.20830275 0.07920384407 0 0 -1
-5.082957021 31.74733429 0.119933866 0 0 1
0.8384375336 32.64830036 0.119933866 0 0 1
-12.5395243 18.36117711 2.69068468 -0.2079116051 0.978147602 0
13.01734716 3.022718487 0.01279532909 0 -0 -1
-22.28591598 9.067326152 0.4634335339 -0 0 1
-2.237067931 26.46922029 5.347703917 0 -1 -3.25753058e-06
-0.8545041434 15.36092345 1.677009468 -0.9996692926 -0.02498862486 -0.006076078262
12.11160519 -0.6879896664 0.4634335339 0 0 1
10.32696749 1.110563856 1.417240094 -0.7979465723 0.5727924705 -0.1875900924
21.09454756 26.00998008 8.07311058 0 0 1
23.50693593 27.77790887 6.073111057 0 0 -1
16.52853001 18.00379959 8.554729462 0 0 -1
11.61598953 5.076475165 0.119933866 0 0 1
-5.381083605 4.395819867 5.642330586 -1 0 -1.282542939e-06
23.54532586 25.62186364 2.129671574 0 0 1
23.46361987 15.84145009 11.68221855 0 -0 1
3.559126302 23.84148914 7.664893486 -0.9686800025 -0.2483123256 -3.639379045e-07
20.095471 7.094764594 0.119933866 0 0 1
-11.76626199 25.11266458 0.4634334743 -0 0 1
15.21391651 21.97873603 0.0127953589 0 -0 -1
27.11001973 -6.503093645 3.885339571 -0.7880519171 -0.002036063887 0.6156053825
1.391677061 12.79936516 0.1380390972 -0 -0 -1
4.007299516 22.96651385 0.09182953835 0 0 -1
5.844329095 9.049745836 0.119933866 0 0 1
17.73378538 22.9628521 1.589104434 0.9102565646 -0.3691054285 -0.1876010597
26.49759841 13.68805855 5.35442933 -0.03285484761 -0.9994601011 -0
-12.09627068 -1.633950472 4.814916269 0 1 0
18.17035882 16.71664629 8.552846909 0 -0 1
8.124558595 -3.045827399 0.119933866 0 0 1
1.23420861 -29.97816734 0.415057586 -0.1671223044 -0.2037864476 0.9646456838
0.7454564253 1.547577143 2.941583262 0 1 -0
11.13884624 22.95293427 1.447425819 0 -1 0
12.50211574 23.98510611 10.51485249 0.2483132102 -0.9686797974 0
-4.945657546 19.77323569 0.119933866 0 0 1
-1.788786862 2.082836222 1.88006043 -0.5783360004 -0.1845481098 0.7946506143
25.28295941 17.91560978 11.11794536 -0.7856160402 0.6187143326 0
-21.73329864 26.35511576 3.467536658 0.2515788078 -0.9678368335 0
11.54758964 6.593238173 0.2602049585 0 0.2432141738 0.9699726105
-13.25717215 4.766299248 4.113920244 0 1 0
12.0301506 16.03972752 0.119933866 0 0 1
16.5021954 6.281749857 10.60774517 0 0 1
-1.522266353 11.38284575 0.119933866 0 0 1
23.64737298 22.80309868 2.85787373 0 1 -0
24.70391912 19.99728227 0.0127953589 -0 -0 -1
29.3201529 15.37168989 11.57265034 0.6187157035 0.7856150866 0
-0.2555950195 9.886440408 0.1380390972 -0 -0 -1
-16.1921371 27.42178223 2.961745718 0.9588010311 0.284078449 -0
26.89090592 15.8734831 8.554729462 0 0 -1
19.7983754 30.00425911 0.01612540811 0 -1 0
-15.78288142 14.31239955 5.868811571 -0.994521846 0.10452891 0
24.80644103 26.86787089 0.1296710968 0 0 -1
-19.98583801 28.57424711 0.119933866 0 0 1
-8.374727948 4.335480726 4.029289722 0 -0 1
8.162018486 24.45322242 0.09182953835 0 0 -1
-16.33022746 16.90729775 6.072659492 0 0 1
-19.22659327 0.4600070026 0.119933866 0 0 1
27.06280262 20.90456851 0.119933866 0 0 1
10.57270241 7.309430407 0.9339940098 -1 0 0
-3.770917437 -1.018729617 0.3459593231 0.01376970962 0.9999052159 1.556530864e-09
14.07247784 -32.14123229 0.1960003952 0.1973641962 -0.1353774518 0.9709378481
-15.72961195 -8.150615222 0.119933866 0 0 1
16.04230483 0.8381907566 0.4634335339 -0 0 1
11.07613124 16.5721732 1.125285465 -0.3904948533 0.4648014903 -0.7946529984
-15.94655609 4.205323022 12.52042525 1 0 0
-18.80761877 13.84803817 1.175178574 -0.8398721814 -0.5093356371 -0.1875954121
15.98369823 13.76194012 8.554729462 0 0 -1
5.627840643 -1.400225015 0.1893860539 -0.02812814724 -1.951302729e-08 -0.9996042768
-19.6444122 -22.11753474 0.1328580442 0.01762612164 0.01777649112 0.9996866584
27.33740049 18.23726295 5.936384397 0.0328566432 0.9994600415 0
28.18895218 4.476422158 0.119933866 0 0 1
-10.73034856 3.993568821 1.407375336 0 0 1
25.17487789 13.62242199 4.695636272 0 0 1
6.662202982 29.27422945 11.73040653 -0.2483143389 0.9686795218 0
-7.608334772 25.74287943 0.7680690289 0 0 -1
25.78138416 25.39288399 2.114890099 0 0 -1
-20.95775707 25.59628813 6.581402142 -0.8835799098 -0.468280375 0
11.0541156 25.91867867 6.025217056 0 -0 1
-6.826957516 28.18408248 4.982481003 0 0 -1
17.03576532 13.73980277 7.478797913 0 -0 -1
16.32187697 14.62224007 12.65096283 0 0 1
9.401282923 5.16440701 0.01279532909 -0 0 -1
-7.951546088 27.51486277 3.596829891 0 0 -1
11.52499661 28.90352608 0.119933866 0 0 1
-16.0242009 30.2320385 0.6559519083 0 1 0
24.07751153 28.75655086 1.129671335 0 0 1
-7.3726335 9.928150713 0.119933866 0 0 1
2.562784743 -23.21147309 0.3452383491 -0.0414294535 -0.02710939922 0.9987735748
-18.55665707 22.65143117 2.482265043 -0.07385189086 -0.9972692132 -0
-2.484816758 -19.90563775 0.1295647323 -0 -0 1
-19.28701145 23.84982018 5.878672232 -0.3080383539 -0.9513739347 -0
16.48078156 5.14425135 9.487657569 -1 -0 0
-7.133140741 3.141356216 0.119933866 0 0 1
6.979018437 25.14319114 7.933229923 0 0 -1
16.71550173 6.154483876 0.119933866 0 0 1
24.14650984 3.998384237 3.966719103 0 -1 0
11.44805317 25.52512227 0.09182953835 0 0 -1
28.13281429 22.40978004 0.0127953589 0 0 -1
30.25771242 -24.44049918 1.36567852 -0.2394986451 0.2318882644 0.9427981377
6.663900817 23.1025467 9.933229446 0 0 1
28.76695696 28.88423118 0.119933866 0 0 1
1.158013418 15.2854337 1.472414333 -0.999669378 -0.02498482204 -0.00607415082
22.57960894 13.51923382 0.119933866 0 0 1
-6.704522414 -3.418474674 4.322534116 0 -1 0
13.68549684 22.81473616 0.119933866 0 0 1
25.88480949 -6.356710734 5.031493163 1 0 0
-18.44553503 7.73312155 0.4634335339 0 0 1
-8.718926665 -3.35081588 7.338795216 1.231483829e-07 -0.9998559356 -0.01697216453
-16.50098547 22.39652881 0.1435237681 2.537684622e-06 1 0
-16.86162005 17.68363465 8.586727142 0 0 -1
-7.614938851 14.86432731 6.704455625 0.9945218207 0.1045295636 0
-5.943984528 22.73013967 1.583736718 0.9773260355 -0.09819628298 0.1875938177
-3.076789634 24.85523931 11.36118889 0 0 1
30.4576547 -5.669466913 2.606966385 0.7880489826 0.002035639249 0.615609169
18.60610771 25.31426992 3.807872323 -1 -0 0
16.43820266 -2.473330634 0.119933866 0 0 1
-18.88108302 -2.988095886 8.747584748 0.1173107588 -0.9927956422 0.0243945686
-8.8194786 11.43209443 6.018702803 0.7431446448 -0.6691308749 0
-5.924222074 15.42690336 3.049759125 -0.3090144399 0.9510573672 0
21.10738945 15.50273662 1.656047195 1 -0 0
8.537793313 26.75643412 4.071211815 0 -0 1
27.02084296 19.62701607 0.03554943501 0 -1 0
27.47450383 7.521695817 -0.0400724411 0 0 -1
20.16686801 15.13403279 0.119933866 0 0 1
24.78312806 -6.996400466 2.353834757 0 0.03933462873 -0.9992260933
18.57769757 18.68488137 3.383580208 0 0 -1
4.303454815 9.320181645 0.1380390972 -0 0 -1
3.097468638 1.563203199 4.793795969 0.0367364265 -0.9991371027 0.01937703609
-17.09788051 28.79262372 3.993995667 0.4856503904 0.8741531372 -0
17.9576875 13.49647903 12.20687276 0 -1 0
25.45936051 -0.0203287738 0.4634335339 -0 0 1
-16.27017946 25.4958725 3.792225792 -0.8346144759 0.5508344551 0
-17.59491201 7.217884822 0.6970701218 0 0 1
-4.058245532 14.56643562 5.632116318 0 0 -1
-2.36781599 29.06560316 9.946435928 0 0 1
-2.23817873 29.1222751 3.853339654 1 -0 0
-1.672891424 20.67654257 0.0127953589 -0 0 -1
-17.59591458 5.60231781 1.094518522 0 1 0
0.3726645155 8.058408535 0.119933866 0 0 1
5.593799376 -20.90859105 0.9260735533 0.05527254567 -0.2486323565 0.9670196176
-8.06631217 6.775152134 1.476290464 0 0 1
-5.466284788 24.05928798 5.031823635 0 0 1
17.88802145 25.11285591 8.707605036 0 1 -0
20.41141641 13.49647903 11.68480025 0 -1 0
-6.969619756 26.75801739 10.66285896 0 0 1
-8.121298695 2.473121405 3.334606005 0 -1 0
21.46755829 30.51723131 0.4634335637 0 0 1
16.91784516 -9.10547335 -0.1446956694 -0 -0 -1
-8.06755071 8.175076362 0.0127953589 0 -0 -1
-21.41394848 18.42449255 0.119933866 0 0 1
-16.24771867 17.61226114 8.586727142 0 0 -1
21.8859274 26.49822195 0.1296710968 0 0 -1
-1.655951977 13.5789272 4.607754058 1 0 0
-10.76683745 5.656046109 7.945301056 0 0 -1
-3.85370438 15.50488085 1.469124556 -0 0 -1
16.15388489 14.46928248 10.54235063 -1 -0 0
17.13133208 -6.306560516 3.847763095 0 -1 -0
4.038088945 25.06890018 6.004599571 0 0 -1
2.58324722 -24.1613817 0.4273939726 -0.0328242209 0.2175687394 0.9754929161
-1.745622682 4.882628161 0.006486803293 -0 0 -1
27.42729335 -0.1039976032 0.119933866 0 0 1
-12.74617162 23.46209112 0.01279529929 0 -0 -1
6.93787574 16.46933556 0.2739972099 0.008747101687 0 0.9999617386
-19.36973603 -10.39118911 0.6466927719 0.1218766049 0.02923483029 0.9921146035
-12.53202629 2.747094152 3.884679204 -1 0 0
1.214926571 31.09557703 0.119933866 0 0 1
-1.197661923 9.15951704 1.035869479 0 -0 1
16.29654264 -4.994319166 6.500130653 0 0 1
-16.51938504 5.60231781 6.597568795 0 1 0
-8.879118817 3.516991046 5.341319084 0 0 1
-18.97029451 18.23585764 7.752957344 0 0 1
-12.50197228 9.625490189 0.5899158816 0 -1 0
4.030596331 1.530432357 0.1759618223 0 0 1
-13.07336833 -19.92104 0.139224008 -0.004239644855 -0.03705951944 0.9993040562
-15.90392808 3.488521338 12.74844446 0 1 0
12.796983 14.19225306 0.4634334743 -0 0 1
-11.60538136 2.473121405 10.87130082 0 -1 0
29.024745 -8.255047182 -0.1446956694 0 -0 -1
-12.00630863 2.816773791 9.268771172 0 0 1
-2.426291226 11.69257726 2.862714291 0 0 1
-10.91065989 4.235477784 7.958887577 0 0 1
-7.5227097 26.31442957 7.115526199 0 0 -1
17.82442777 17.59952123 8.552846909 0 0 1
11.41871733 -21.40435989 0.4214010468 0.1362251788 -0.1423639655 0.9803954363
29.09967603 15.23109373 8.552846909 0 -0 1
0.4555178042 1.180197029 0.1759618223 0 0 1
21.38402115 24.8763385 8.07311058 0 0 1
28.42624078 14.60290937 0.119933866 0 0 1
28.98454448 16.95190205 4.733394383 -0.03285606951 -0.9994601607 0
19.49900256 26.94691827 2.114890099 0 0 -1
-3.174104127 26.60539607 9.227865219 0 0 -1
0.7043418801 1.459511753 1.521984339 0 0 1
-18.70437622 3.111918876 6.937026623 -1 0 0
26.65438853 18.84973051 9.357566438 0.6187167764 0.7856140733 0
4.079838568 8.886219025 1.018847349 0 -1 0
9.570818402 10.29983303 0.119933866 0 0 1
-0.02694710699 2.979006159 0.106870532 -0 -0 -1
-7.190118661 24.26615092 4.313252449 0 0 -1
19.09560386 24.13458402 6.073111057 0 0 -1
-4.299562409 28.29622339 0.119933866 0 0 1
4.128639971 24.26471833 13.5288372 0 0 1
-17.46946591 22.25204837 0.119933866 0 0 1
23.91562772 -10.17016781 0.119933866 0 0 1
-18.70437622 3.228096258 4.77749726 -1 0 0
-6.944876877 26.42077727 11.32274246 0 0 1
-24.11698484 8.087777764 1.45747826 -0.794650197 0.5773574114 -0.1875883341
2.799833131 2.812819719 0.6024847783 0 1 0
-13.37635046 -3.709510088 0.1506103225 0 -1 0
6.053001597 11.9950925 0.119933866 0 0 1
17.29035271 18.69202042 9.386089551 0 1 0
-4.581493049 -4.308084407 0.2743503163 0.004589786932 0.9999894099 0
-8.0652018 6.131596118 4.017849445 0 0 -1
30.26675472 10.49215442 0.4634335041 0 0 1
-20.74085522 7.699097676 0.119933866 0 0 1
16.36121354 -11.84455243 0.119933866 0 0 1
-20.84957303 25.76182202 8.153950694 -0.8835771919 -0.4682854737 0
-15.77524426 2.452126922 7.660190582 0 0 -1
-1.943727223 -23.54016158 0.1850369347 -0.03495505452 0.07286220789 0.9967292547
-18.06849441 -1.371395192 3.584837198 0 0 1
-12.53202629 2.762214887 4.480651228 -1 0 0
6.849417336 19.71806078 0.0127953589 0 0 -1
29.29580096 -5.827895415 -0.2362890244 0 0 -1
24.38832299 16.81048084 6.472615657 -0.9998878837 -0.01497564279 -0
10.57378514 28.17713067 7.933229923 0 0 -1
-3.81469221 13.53815831 8.407309532 0 0 -1
-1.515270092 -23.42118118 0.1938900029 -0.03885099664 0.04543706402 0.9982114434
0.8233543099 29.59096661 0.119933866 0 0 1
-19.64656991 24.42545459 6.904575453 0.3080381734 0.9513740131 0
26.08384268 15.39632985 8.554729462 0 0 -1
-7.894513981 3.32695691 9.257332802 0 0 -1
6.628760109 11.67237768 2.992615191 0.8819187861 -0.4714013521 0
22.36084892 32.77377319 0.04559951054 0 1 0
-13.5493885 -7.706032224 0.119933866 0 0 1
-7.033993371 27.68393012 2.182822227 0 0 -1
18.5446434 26.74943559 2.900171221 -1 0 0
11.92914381 24.49320136 6.004599571 0 0 -1
-8.216093063 25.36301091 10.65103773 -1 -0 0
-17.9197197 3.679856698 0.7116210163 -1 -0 0
12.05923692 -7.436943054 0.3153046994 0 1 0
26.21695821 -22.02806599 0.3284090263 -0.1115009636 0.0323545076 0.9932374954
-2.455700746 -4.889889358 0.1376694248 0.9999895096 -0.004589417484 0
-14.68904912 -7.870155132 0.4152131738 -0.03888489679 -0.1014271304 0.9940827489
5.562723585 22.20625207 2.364326463 0.248312729 -0.9686799325 -6.13968447e-07
6.424466365 12.85175365 0.8124558926 0 0 1
25.7894393 24.12468505 4.087892056 0 0 -1
-11.53407726 3.958540641 5.341319084 0 0 1
17.17575971 29.63547424 0.2269845743 0.9999943063 -0.003380193841 0
28.48876493 14.29294701 8.554729462 0 0 -1
6.052262766 -1.647312076 0.119933866 0 0 1
21.10738945 16.21821442 12.19902256 1 -0 0
24.95942233 17.50479863 3.904538985 -0.7856160402 0.6187143326 0
23.0153674 -18.15444794 1.067365438 -0.2723635733 0.3111794293 0.9104863405
-2.087253416 27.55642768 0.119933866 0 0 1
15.80843869 15.33536554 4.959588 0.6115481853 -0.7912072539 0
-1.433704691 -1.918394835 0.119933866 0 0 1
-6.199946404 3.822059593 10.27134416 1 -0 0
27.98078346 5.174154567 5.029324894 1 -0 0
-12.90077872 -26.8479928 0.1638392263 0.007851819508 0.03442947939 0.9993762374
-7.625630536 -2.41328063 1.294732809 0 0 1
1.02912727 -6.623271281 1.671247019 0.7946487665 -0.5773609281 0.1875837743
5.407806783 24.67608482 7.933229923 0 0 -1
5.30644231 -4.171021797 0.106870532 -0 -0 -1
12.84203417 29.5265274 8.241771688 0 1 0
0.2727589696 12.77024853 0.1380390972 -0 -0 -1
21.16263997 26.20354528 4.087892056 0 0 -1
13.8086197 20.81468421 0.119933866 0 0 1
18.15349315 5.763913751 0.119933866 0 0 1
6.093667036 12.55355086 3.185608864 0 0 -1
-5.829303396 11.85813539 2.869969368 0 0 -1
12.9109419 25.15644114 4.071211815 0 -0 1
24.70538418 26.67674004 0.1296710968 0 0 -1
-1.424968024 -8.355245358 -0.1446956694 -0 -0 -1
3.20897069 29.42445749 13.86661625 0 -0 1
25.78892766 16.50265958 8.552846909 0 -0 1
10.04245589 30.23138437 0.6970701218 -0 0 1
-19.77153462 18.0101855 11.14060688 0 0 1
6.746640768 -8.577180681 0.119933866 0 0 1
28.08518009 28.88370821 0.01279529929 0 0 -1
28.0794773 27.50496163 0.006486773491 0 0 -1
-1.781636157 9.889387173 0.119933866 0 0 1
-16.22618974 26.45574705 1.873836861 0.9911423146 -0.1328040789 0
-10.37305551 4.39678836 1.407375336 0 -0 1
-9.729186251 0.2605823439 0.4634335339 -0 0 1
4.374619961 1.253549295 0.5778022701 1 -0 0
14.79555321 0.122510488 0.08306983697 -1 -1.371979834e-06 0
24.24208753 13.68239564 7.204457876 -0.9998879433 -0.01496787835 0
-19.22666303 17.44667917 0.9725916386 0 0 1
4.580763179 -10.10085025 0.119933866 0 0 1
-6.015145515 13.31377658 5.632116318 0 0 -1
12.35676135 24.3391167 6.004599571 0 0 -1
-21.73087933 -2.363485874 7.512121977 0.9924743772 0.1224527359 0
26.06953187 18.91436271 10.19314262 -0.785615623 0.6187148094 0
7.955117623 29.5265274 8.520632575 0 1 0
-16.89320602 26.7181369 13.20350934 0.9911413193 -0.1328118309 0
4.421186459 9.598111818 0.1380390972 -0 0 -1
-6.199946404 5.301421283 5.631960604 1 -5.294571534e-06 0
16.48078156 6.608208551 5.309312423 -1 -0 0
9.777092272 32.77377178 0.209644521 -5.075369245e-06 1 0
6.591220581 11.13810088 0.7870023251 0 0 -1
-23.09532468 11.93366385 0.01279529929 0 -0 -1
-10.88106311 -23.54933452 0.1295647323 0 -0 1
-15.74895982 15.63589227 0.119933866 0 0 1
1.088020974 1.408533714 0.1759618223 0 0 1
-5.995697978 16.03208389 1.614915518 -0.7913423181 -0.5818842053 -0.1875848472
-7.8525033 -3.423070694 4.44106847 1 0 0
-18.03685284 5.454092026 5.877438658 0 1 0
7.433801069 24.80814851 0.09182953835 0 0 -1
-13.57252527 5.915671123 1.575023242 0.1842826754 0.5784156322 -0.7946541905
-4.45792864 14.27158796 2.869969368 0 0 -1
-5.866019892 29.63620927 0.119933866 0 0 1
-19.83119065 27.14721931 4.248646067 0.07385101169 0.9972692728 0
2.799543977 29.99164322 1.582305089 0.3248733878 0.9269652963 -0.1875971109
