# .PCD v0.7 - Point Cloud Data file format
VERSION 0.7
FIELDS x y z
SIZE 4 4 4
TYPE F F F
COUNT 1 1 1
WIDTH 1351
HEIGHT 1
VIEWPOINT 0 0 0 1 0 0 0
POINTS 1351
DATA ascii
1.0966127 -1.0046258 -0.0030403733
-0.27075261 -0.98317736 -0.0096682906
0.22487256 -0.98676753 -0.0065168142
0.71647692 -0.97124183 -0.0058807731
0.91936082 -0.97412956 -0.0047473609
0.064467639 -0.96997952 -0.0097075701
0.31559545 -0.96720386 -0.0057976842
-3.3342781 -0.95573401 -0.00057017803
0.09109062 -0.94224942 -0.0099562407
0.23057175 -0.94376713 -0.0065746307
0.36998248 -0.94536638 -0.0030111074
0.50939196 -0.94651365 -0.00045406818
1.1603428 -0.94698894 -0.0043096081
0.47119582 -0.92935538 -0.00079119205
0.42254323 -0.89932263 -0.0087260902
0.6682812 -0.87371302 -0.0031199157
0.15538049 -0.85748923 -0.0060322285
1.1662384 -0.85960442 -0.0068329126
0.23087376 -0.84655559 -0.0013657808
0.2443651 -0.83010471 -0.0036587715
0.38693762 -0.83277851 -0.00033378601
0.070012093 -0.82893884 -0.0048007369
0.10184926 -0.82717168 -0.0073071718
0.31211412 -0.82022965 -0.00079059601
0.80844456 -0.82584566 -0.0091886073
-0.28341872 -0.81459033 -0.0010315776
-0.092591405 -0.81111634 -0.0083605647
0.51973522 -0.80601728 -0.0044173002
1.9239877 -0.80112004 -0.0076926765
-0.046605885 -0.79073393 -0.0079379082
0.093540549 -0.792418 -0.0042651892
0.23362809 -0.79401696 -0.00077772141
0.41481364 -0.76981354 -0.0042113662
-0.72145659 -0.74744904 -0.0088899136
-0.0060582161 -0.74744606 -0.0057528019
1.7191582 -0.73703873 -0.008934468
0.15186721 -0.71073461 -0.00034844875
1.15639 -0.69679379 -0.0018672782
0.79072249 -0.67943978 -0.0055639446
1.9765301 -0.67215443 -0.0054610968
-0.086764038 -0.66892922 -0.0023489594
0.15672171 -0.66269255 -0.006755352
1.924806 -0.66885376 -0.0022048769
-0.25151047 -0.6500814 -0.006099999
0.098957419 -0.65161109 -0.0014016628
-0.18439379 -0.64593709 -0.0085779428
-0.042748719 -0.64893329 -0.0047881603
0.32613707 -0.64184624 -0.0041307211
-0.41766253 -0.63118327 -0.0092642605
-0.32647571 -0.63595164 -0.0098680258
-0.18557429 -0.6376375 -0.0062698126
-0.16774914 -0.63620973 -0.0065083504
-0.044746339 -0.63945198 -0.0023961067
0.40985742 -0.63981044 -0.0013150871
1.8570198 -0.6310972 -0.0091095865
1.7227029 -0.61302966 -0.0082356036
-0.0083610117 -0.59981561 -0.0013823509
1.1608137 -0.58587599 -0.0085051432
-0.72746974 -0.57387805 -0.0016459227
-0.10797441 -0.55249202 -0.0097321868
0.1494261 -0.53109908 -0.002574414
0.77213126 -0.53090268 -0.0016731918
1.9248325 -0.5359689 -0.0020247516
-0.33092409 -0.52483428 -0.006375581
-0.24662924 -0.50619876 -0.0012010038
0.40097439 -0.49285474 -0.0064749569
-0.46744221 -0.48164082 -0.0076449513
-0.41291785 -0.48658359 -0.0039861202
-0.32585144 -0.48332608 -0.0041230321
-0.18431795 -0.48483336 -0.0009727478
-0.16999117 -0.48872364 -0.0016056001
0.13670498 -0.48146883 -0.0036606193
-0.18582261 -0.47233474 -0.0026181936
-0.58124232 -0.46664488 -0.0072530806
-0.46744326 -0.46709895 -0.0093523264
-0.32666862 -0.46965349 -0.0060669184
1.9551765 -0.46215558 -0.0041844249
1.4542904 -0.4511486 -0.0085292459
-0.75089216 -0.44669938 -0.0097377598
1.4772162 -0.43700945 -0.0085864067
-0.49508107 -0.41286194 -0.0061684549
-0.11687696 -0.4191407 -0.0047268867
1.176816 -0.41315582 -0.009543553
1.4071177 -0.41908205 -0.007968545
2.0673668 -0.41850293 -0.00056919456
1.2594782 -0.40235984 -0.0097607188
1.3926529 -0.40262198 -0.0068838415
1.5262095 -0.40313017 -0.001305562
1.6583682 -0.40261376 -0.0069739637
1.7909533 -0.40243351 -0.0089515261
1.4906013 -0.3819682 -0.0037160814
1.8646516 -0.38243195 -0.0073865205
-3.3698659 -0.37577832 -0.006575048
-0.33262727 -0.37708473 -0.0016821623
1.7827197 -0.37745273 -0.0090069175
-3.6161375 -0.36273879 -0.0025123954
1.7275702 -0.36172515 -0.0022303015
0.96324182 -0.35461974 -0.0086691082
1.3017961 -0.34027195 -0.0067577958
0.37748119 -0.33796725 -0.0018414035
-0.57661366 -0.32067955 -0.0015688241
-0.46744162 -0.3275243 -0.002048552
-0.04873997 -0.3246603 -0.0030595064
-3.2857161 -0.31834397 -0.0083458722
1.1257749 -0.31760609 -0.0028357804
-0.66058791 -0.30055749 -0.0053604841
-0.39054337 -0.30395794 -0.0070786476
1.0435643 -0.30579507 -0.0093225539
1.3145671 -0.30246243 -0.00025247037
-0.74708384 -0.29540044 -0.0067323148
-0.6074481 -0.29315603 -0.006293416
-0.4674435 -0.2954731 -0.0032624006
-0.32737854 -0.29760742 -0.00047034025
-0.0065740645 -0.29799768 -0.0087912679
1.1153221 -0.29909062 -0.0097612441
1.856524 -0.29983765 -0.0091575086
-3.5902576 -0.28168154 -0.004981786
-0.12426318 -0.28547645 -0.00057411194
1.0282974 -0.28728437 -0.0067625046
1.1766701 -0.28515482 -0.0030143932
1.2231543 -0.28607559 -0.0044463277
1.7761532 -0.28727579 -0.0066483021
-0.91960257 -0.27840817 -0.0084359944
1.2602344 -0.27010083 -0.0027450141
-0.49673116 -0.26523566 -0.00094121695
0.99388039 -0.26959407 -0.0088613443
1.0356069 -0.26390493 -0.0053015351
1.1270233 -0.26984 -0.0058931527
0.89425927 -0.24445471 -0.0082363933
0.79721481 -0.23272359 -0.0079605877
-3.1919303 -0.2186276 -0.0014999509
0.96073341 -0.19661301 -0.0028414726
-0.8248207 -0.18595123 -0.0077760816
-0.67308176 -0.18551874 -0.0089873672
1.2987714 -0.18515593 -0.0016542673
0.86436391 -0.17324948 -0.0092054605
-0.39818132 -0.16832352 -0.0028676391
-0.23087052 -0.1698246 -0.0030728579
-0.66122931 -0.15232146 -0.0010156631
1.0426948 -0.1528635 -0.0045317113
1.1127951 -0.14503586 -0.0046824813
-0.032827437 -0.1377905 -0.004231602
0.72930121 -0.13786137 -0.009042263
0.86111474 -0.1368202 -0.0078721456
0.87863076 -0.13762724 -0.0055098534
0.99426508 -0.1370616 -0.0046347198
1.0279106 -0.13740063 -0.0020911694
1.0357649 -0.13347393 -0.0014612079
1.1274524 -0.13728976 -0.0015752134
-0.91872102 -0.12872112 -0.0077219009
-0.60674042 -0.12251425 -0.0012819767
-0.74595618 -0.11959314 -0.0051691532
0.63006496 -0.11044359 -0.0077953339
0.89385861 -0.11323592 -0.0041144043
0.92891669 -0.10529077 -0.0079047978
0.75049531 -0.092773616 -0.0067254007
0.60577244 -0.072150111 -0.009499833
0.79483795 -0.074993789 -0.0028464794
-0.68046606 -0.047807336 -0.0049949288
0.6861819 -0.041385174 -0.0091836154
-0.82484275 -0.037459016 -0.0037129521
0.8630746 -0.020416498 -0.0044265985
-0.40876889 -0.019658327 -0.0023066401
0.59527147 -0.0038332939 -0.0098499171
0.72834563 -0.0040419102 -0.0067033586
0.86146414 -0.0042446852 -0.0036448655
0.99464238 -0.0044534206 -0.00049446197
1.109912 0.0084604621 -9.5158815e-05
-0.75567544 0.013836205 -0.0097810626
0.46185911 0.012314677 -0.0079971105
0.57963479 0.011804223 -0.0077881813
0.72899127 0.012002468 -0.0043702126
0.87828219 0.01220727 -0.00083732605
0.89349335 0.01872623 -3.7059188e-05
-0.91460121 0.020210147 -0.0016749799
0.74974847 0.039887011 -0.0027033836
0.62812722 0.047295213 -0.0027607232
0.92664593 0.047086895 -0.0031833947
-0.88281739 0.05632019 -0.0097359419
0.60455614 0.061260611 -0.0053969622
1.9080942 0.065148056 -0.0045660138
-0.97213888 0.076190412 -0.006619513
-0.46771312 0.074427545 -0.0064926893
1.8219105 0.075507253 -0.0088020265
-0.6894927 0.089934766 -0.00011456013
0.4578563 0.082873225 -0.008049354
0.50900662 0.089804888 -0.0092539489
0.74578142 0.085132062 -0.0060045421
1.9830055 0.08106041 -0.0022658408
0.68447691 0.11134851 -0.0044158399
-3.2587457 0.12844789 -0.00022445293
-0.58314598 0.12753624 -0.0015562773
0.46249563 0.1289435 -0.0087716691
0.56681108 0.12290317 -0.0091709495
0.59554601 0.12876612 -0.0057137725
0.72865462 0.12858355 -0.0025649485
2.1335926 0.12890805 -0.0082656145
2.2639885 0.12992185 -0.0065627843
0.29291344 0.13583344 -0.0079243332
-0.92493165 0.15849108 -0.0084228516
0.42999583 0.16144341 -0.0066494942
0.57937062 0.16161335 -0.0032303333
0.46036398 0.17006671 -0.0030400753
1.7759621 0.17779067 -0.0043293238
0.60329336 0.19548237 -0.0012017861
0.45619094 0.21781734 -0.0039083511
0.33288604 0.22035718 -0.0095113218
0.74388009 0.23578864 -0.0014810115
-0.49796087 0.24287754 -0.0017772615
0.30767372 0.2403309 -0.006783247
0.50695151 0.24246824 -0.0045941472
0.12298597 0.25992322 -0.0080356896
0.15755205 0.26312372 -0.0095470399
0.32969648 0.26174265 -0.0077828881
0.46273446 0.26158619 -0.0046340344
0.59582031 0.26143414 -0.0015754816
1.721336 0.2668137 -0.0061081089
-3.147301 0.27619034 -0.007463038
-0.7544921 0.27297682 -0.0014038682
0.56548947 0.27248269 -0.0045153499
1.8851501 0.28009737 -0.0097772032
2.0162468 0.28140667 -0.0076188967
-0.92562759 0.29771751 -0.0097608492
0.29181555 0.29355758 -0.003138572
1.6415675 0.29208651 -0.0042889118
-3.2252028 0.3097758 -0.0041846037
0.38934669 0.30866623 -0.007363081
0.13092971 0.31091732 -0.0090427399
0.28037524 0.31106365 -0.0055096149
0.42975736 0.31121475 -0.0018627644
0.15751702 0.35013825 -0.0094883144
0.30554634 0.37683743 -0.0026061907
0.33001179 0.37272114 -0.0042102933
-0.047838919 0.38466662 -0.0081476048
0.063914001 0.39468485 -0.0098498426
0.19688493 0.3945545 -0.0067031798
0.32990623 0.39442408 -0.0035545346
0.15504913 0.40034968 -0.0054969192
1.5046654 0.40884897 -0.0040048957
-0.92282736 0.41659731 -0.0017887354
0.12238402 0.4176963 -0.0032361969
0.0029120184 0.42415518 -0.0082769394
1.7661437 0.43492737 -0.0078624785
1.7110965 0.4501051 -0.00044269487
-0.018692136 0.46054804 -0.0079026222
0.1307742 0.46066511 -0.004368782
-0.016982943 0.47920537 -0.0093716979
0.21487197 0.49129999 -0.0055836439
-0.21966851 0.50999665 -0.0084463209
0.15424937 0.50239581 -0.0042014271
-0.99900037 0.52732456 -0.0038247672
-0.068900436 0.52749151 -0.0088615976
0.043043688 0.52584732 -0.0087566823
0.064051986 0.5273872 -0.0057140109
0.19705522 0.52728283 -0.0025652763
1.3653976 0.52729231 -0.0039606094
0.15240049 0.53847849 -0.0012111366
-0.048039369 0.5424149 -0.0035200641
-0.00021284446 0.56307214 -0.0039771236
-0.15432468 0.58786845 -0.0069142692
1.1278248 0.5813275 -0.0085908193
1.5133415 0.58945447 -0.0090110153
1.6458417 0.59125364 -0.006153062
1.6527621 0.6035834 -0.0072771311
-0.31004518 0.61292374 -0.0098819025
-0.16829258 0.61015695 -0.0068769455
-0.018805623 0.61024475 -0.0033435822
-0.39241424 0.63599426 -0.0087447278
-0.020246886 0.63156742 -0.0047495514
0.2142866 0.63754958 -0.0012393594
1.2235579 0.64803624 -0.0038330555
-1.8401577 0.65595847 -0.00056961179
0.15165904 0.65572095 -1.0386109e-05
-0.21931303 0.66782951 -0.0037125051
-0.2017343 0.66031897 -0.0080523677
-0.068799913 0.6602385 -0.0048139212
0.064182281 0.66016245 -0.0017544446
0.042994924 0.67108136 -0.0042815208
-0.12623757 0.70418751 -0.0072138458
-0.1578638 0.72838044 -0.0027178377
-0.29340157 0.73684454 -0.0099655986
1.3911105 0.7474916 -0.0071484149
1.4691904 0.74035299 -0.0079605579
1.5243214 0.74947917 -0.0040485859
-0.4674421 0.75969422 -0.0091571808
-0.31600231 0.75701368 -0.0056692511
-0.16836876 0.75980747 -0.0023183823
1.1202238 0.75727558 -0.0032921284
-0.56591904 0.76276964 -0.0087654293
1.3040538 0.7602843 -0.009573698
1.0790088 0.77137256 -0.0034956336
-0.47213599 0.78050238 -0.0083698928
-0.023412533 0.78470337 -0.00029094517
-0.39144135 0.79394305 -0.0038121045
-0.33457977 0.79315543 -0.006972265
-0.20166591 0.79310477 -0.0039146733
-0.068699121 0.79305255 -0.00076493295
-0.99976325 0.81270778 -0.0040907189
-0.12592028 0.84780908 -0.002852343
-0.29267523 0.87955374 -0.0056230053
-1.0883946 0.88598043 -0.0030034035
-0.74056751 0.89008141 -0.0091608539
-0.31809419 0.89641434 -0.001510039
0.93198675 0.89624321 -0.0035709143
-0.46744299 0.90932393 -0.004825592
-0.31791478 0.90935409 -0.0011794567
1.1337031 0.90498376 -0.0086860061
1.1686248 0.90172917 -0.0094264317
1.2675425 0.90706795 -0.005493775
1.3139036 0.90949273 -0.0047603846
-0.45770472 0.91105568 -0.0086510107
-0.86599553 0.92603129 -0.0085015111
-0.6002872 0.92603803 -0.0093112215
-0.56458998 0.92065644 -0.0040993951
-0.47661078 0.92347413 -0.0042663515
-0.46744305 0.92601192 -0.0061644153
-0.33454823 0.92598581 -0.0030143266
-0.6366173 0.95070475 -0.0073426925
1.1691009 0.9589678 -0.0089173019
-0.29215312 1.0216867 -0.0015933663
0.7820828 1.02391 -0.0033940673
-0.73888338 1.0479134 -0.0047605485
0.56644028 1.0452414 -0.0063490383
-0.7331354 1.0588819 -0.0090411492
-0.60031617 1.0588819 -0.0058032353
-0.46744317 1.0588819 -0.0014849559
-0.45673081 1.0522616 -0.0045661107
0.97569644 1.0588819 -0.0072085857
1.160814 1.0588819 -0.004600984
-0.48101473 1.0672697 -0.00028144568
1.0081445 1.0663208 -0.0068771839
1.142671 1.068454 -0.003668189
-0.61947131 1.0825157 -0.007575728
-0.64139259 1.0952592 -0.0035658851
-0.8037855 1.1237308 -0.0064443275
0.62939173 1.1538339 -0.0032987595
1.0632205 1.1658355 -0.0097050965
-0.91377866 1.1760532 -0.0048640966
-0.86601281 1.1917384 -0.0077823517
-0.73320687 1.1917638 -0.0047242236
-0.60035181 1.1917899 -0.0015751426
-0.45566654 1.1927198 -0.00035479665
1.0670329 1.190907 -0.0059732981
0.64739454 1.2035515 -0.0099679232
0.98480129 1.205961 -0.0026659966
0.56149727 1.2125621 -0.0013651922
0.86835647 1.2139041 -0.0060913116
-0.61792475 1.2220397 -0.0032382719
0.74609482 1.2273692 -0.0080455542
0.88123858 1.2294487 -0.0049729049
1.0164615 1.2316324 -0.0017463565
-0.77843177 1.2510831 -0.0062314868
-0.80947655 1.2702702 -0.0021163672
0.47368911 1.2865562 -0.0030302405
-1.0919232 1.3036056 -0.0087155998
-1.0877595 1.3007993 -0.0019745827
0.71084392 1.3003541 -0.0083435774
0.89516115 1.3090489 -0.0061866939
0.046975285 1.3154013 -0.0094165392
-0.99883062 1.3245755 -0.0089509599
-0.86609536 1.32465 -0.0044543413
-0.73327053 1.3247097 -0.0008553681
-0.91147256 1.3330603 -0.00029115379
0.65645772 1.348389 -0.0053534508
0.87501317 1.3537827 -0.0079127699
0.58324891 1.3649195 -0.0074141026
0.86089969 1.3687804 -0.0013964921
-1.0921149 1.3702216 -0.0090232939
-0.77660978 1.3891354 -0.0020752698
0.48130041 1.3898784 -0.0095342994
0.61709535 1.3921119 -0.0062919855
0.75294256 1.3942399 -0.0032033324
-0.93479943 1.4169211 -0.0048386231
0.31516403 1.4212662 -0.0030608177
0.72417289 1.4264389 -0.0065486878
-0.97998047 1.4479964 -0.0013115853
-0.99902469 1.4575677 -0.0031043109
-1.0869479 1.4618278 -0.00066415966
0.55832243 1.4692872 -0.0066228509
0.045415223 1.475738 -0.0043472722
0.33879608 1.486396 -0.0077177286
0.6660096 1.4934081 -0.00049042702
-1.0655649 1.5074737 -0.0015206337
0.68983042 1.53868 -0.0060551316
0.55429167 1.5432144 -0.0067587197
-0.93221831 1.5532371 -7.9415739e-05
0.15345398 1.5589252 -0.0029156208
0.3501941 1.5564163 -0.0077020526
0.48669225 1.5586472 -0.0045204163
0.51187438 1.563266 -0.0093229264
0.62326193 1.5609344 -0.0012583137
-1.0879408 1.5796779 -0.0022684298
-1.13202 1.5905435 -0.00067512365
0.34754783 1.6292264 -0.0031713247
0.26169366 1.6348104 -0.008069098
0.40732688 1.6366688 -0.0046321154
0.55290759 1.6384223 -0.001388967
0.38544351 1.6593504 -0.0068915486
-1.2242177 1.6684561 -0.0010294914
-0.011489868 1.6994584 -0.0026792288
0.56259 1.6954775 -0.0020044744
-1.6116658 1.7026706 -0.0081787854
-1.2855716 1.7083623 -0.0090372562
-2.6606016 1.7285099 -0.00062030554
-0.43920186 1.7228682 -0.0071466714
0.080494761 1.7223289 -0.009282887
0.21764547 1.7246671 -0.0060058236
0.35486293 1.727006 -0.0027281046
0.50777948 1.7205112 -0.0044173002
-1.2396276 1.7404501 -0.0012778416
0.33207157 1.7440306 -0.0074789226
-1.8456221 1.7613822 -0.0085319877
-1.5534757 1.7623235 -0.0041113943
-1.3915935 1.7655146 -0.0034294128
0.03867501 1.7608709 -0.0058646202
0.21751274 1.7747841 -0.0070998967
-2.7597907 1.7856246 -0.0047300309
-1.5417464 1.7902094 -0.0052837059
-1.3921247 1.7921619 -0.0013015717
-0.032066733 1.7986355 -0.009691
-2.9330435 1.8037194 -9.9778175e-05
-1.8136842 1.8067945 -0.0077888966
-1.6638836 1.8066576 -0.0044834614
-1.5141431 1.8065255 -0.0012934208
0.11293375 1.8003986 -0.0063650608
0.25787568 1.8021095 -0.003136754
-1.6913416 1.815293 -0.0089730471
0.39306033 1.8114799 -0.002302438
-1.8019139 1.8273559 -0.0046361685
-0.17950147 1.8421739 -0.0027520657
-1.7959039 1.8559585 -0.0090415888
-1.6632932 1.856115 -0.0058932719
-1.5306654 1.8562983 -0.0022052345
-0.44024435 1.8767374 -0.0028011203
-1.7179441 1.885978 -0.0070886463
-1.676789 1.8807379 -0.0040789694
-0.26068819 1.8885453 -0.0083835721
0.050387174 1.8894485 -0.0075311959
-3.0075049 1.8913072 -0.0089411139
-2.9555545 1.8909472 -0.0067777224
-0.054222494 1.8926021 -0.0072728395
0.08365196 1.8949938 -0.0039789081
0.22159457 1.8973877 -0.00068151951
0.32866091 1.8994136 -0.0028041005
0.047306418 1.9017532 -0.0012901425
-1.8510516 1.9139988 -0.0090925545
-1.5589857 1.9153831 -0.0019365102
-1.5397476 1.9232079 -0.0038917735
0.15526918 1.9218378 -0.0058499575
0.22467335 1.9269195 -0.0023743212
-2.9942195 1.9448128 -0.0045278072
-1.6889011 1.9474483 -0.0074429289
-0.016264349 1.9439819 -0.0090498328
-3.1598768 1.9563601 -0.0074460506
-1.9851573 1.9585302 -0.0086331964
-1.8135413 1.9562807 -0.0058507919
-1.6637548 1.9561164 -0.002546072
-0.1786449 1.9626099 -0.0079879165
-0.034341276 1.964378 -0.0045848489
0.1099028 1.9660957 -0.0012786388
-1.8357724 1.9710276 -0.0097946078
-1.9287509 1.9888046 -0.0090409331
-1.7974083 1.9863559 -0.0044039991
-1.6634272 1.9890914 -0.0040937481
-1.5308079 1.9893262 -4.5460183e-05
-0.35074532 1.9873854 -0.003008008
0.69138449 1.9974227 -0.0036681443
1.7353392 1.9990355 -0.00056800246
-1.8825451 2.0082502 -0.008155793
-0.11567339 2.0035257 -0.0078089535
-0.25278687 2.0273423 -0.0041113496
-1.7241532 2.0387065 -0.0042924881
-1.6845789 2.0351388 -0.00086978078
-2.8413861 2.045562 -0.00042235851
0.057039544 2.0415504 -0.0027447939
-3.1233058 2.0577397 -0.0053504109
-1.5364754 2.0548024 -0.00030465424
-0.32897928 2.0618513 -0.0091841221
-0.1904442 2.064414 -0.0057149529
-0.051840693 2.0669203 -0.0023218393
-1.8612332 2.0704875 -0.0035691559
-1.685143 2.0781724 -0.0035926551
0.15240543 2.0754566 -0.0012173951
-3.4477215 2.0825112 -0.0050786734
-2.1667299 2.0916305 -0.0086544454
-0.018666804 2.096792 -0.0043387413
-3.4166951 2.1034479 -0.002379775
-2.1129441 2.106019 -0.0088143349
-2.0392258 2.1058176 -0.0071517825
-1.9630697 2.1058207 -0.0053949356
-1.8318498 2.1010857 -0.0062327832
-1.8132606 2.105629 -0.0020906925
-0.89572805 2.1045763 -0.0060713589
-1.9787583 2.1161108 -0.0027447045
-0.28078446 2.1169503 -0.0080870986
-0.18797722 2.1178885 -0.0075207055
-2.0615788 2.1216388 -0.0092211775
-2.0465379 2.1297212 -0.0087676346
-1.9770201 2.1237755 -0.0089120269
-1.9290205 2.1218474 -0.0060741124
-1.7964185 2.1220622 -0.0028347787
-0.46744281 2.1231318 -0.0098764896
-0.32375965 2.1248078 -0.0065842271
-0.18014297 2.1266272 -0.0030109882
-0.52585667 2.1366963 -0.0026737452
-2.2203615 2.1422448 -0.0093719661
-0.54334676 2.149229 -0.0065290928
-2.9715333 2.1573687 -0.0012782812
-0.10957548 2.1555583 -0.0030379593
-3.2497673 2.1667395 -0.0049917102
-1.8897392 2.1603429 -0.0041010082
-3.4194422 2.1991723 -0.0036652014
-3.2978346 2.1912155 -0.0021323189
-2.3484161 2.2257967 -0.0074361861
-0.44505301 2.2296536 -0.0085123181
-1.8277558 2.2304342 -0.002348423
-0.46744302 2.2356884 -0.0073896646
-0.32817224 2.23843 -0.0037415624
-3.4422576 2.2487757 -0.0005145371
-2.1598165 2.2491982 -0.0028443635
-0.18883032 2.2409935 -0.0003298521
0.2136938 2.2447121 -0.0065309554
-3.4961717 2.2500219 -0.0051836669
-2.2623754 2.2555041 -0.0072188377
-2.2100351 2.2502675 -0.0086558163
-2.1946073 2.2546108 -0.0075131473
-2.1125383 2.2553153 -0.0043683052
-2.0619993 2.2547987 -0.0049944338
-1.9725806 2.252358 -0.0049753338
-1.9627196 2.2551041 -0.0011794567
-1.9293729 2.2550066 -0.0022053537
-0.89276391 2.2504554 -0.0012636632
-3.0988693 2.2645774 -0.00052851439
-2.0494637 2.2639413 -0.002427727
-0.8262707 2.267467 -0.0093700886
-0.27523601 2.2689118 -0.0033309758
-0.19002329 2.269063 -0.0025784671
-2.1158636 2.2740481 -0.0075737089
-2.0542159 2.28159 -0.0044550598
-0.70411837 2.2878661 -0.0029348135
-0.61044192 2.2839572 -0.0080960393
-0.5357914 2.2861648 -0.0023623109
-0.46744323 2.2857313 -0.0045391917
-0.35725993 2.2891903 -0.0055623651
-0.32450768 2.2874579 -0.00107795
-2.2571015 2.2951922 -0.00914222
-2.2312655 2.3014054 -0.0046283305
-0.52263868 2.309021 -0.0088784695
-1.3217049 2.3174505 -0.008053638
-3.4242725 2.3369007 -0.0061623752
-2.4146671 2.3389833 -0.007484436
-0.60838509 2.3417137 -0.0089338124
-2.5316772 2.3604405 -0.0070710778
1.2050064 2.3683982 -0.004075706
-2.3726966 2.3701982 -0.0085466802
-2.4600563 2.3872907 -0.0096711926
-2.3418579 2.3830075 -0.0029448271
-2.327539 2.3875217 -0.0068823514
-2.1949368 2.387723 -0.0044544754
-2.0623567 2.3879762 -0.0013946709
-1.9683836 2.3804832 -0.0014595538
-0.43999803 2.3815792 -0.003695339
-2.5618348 2.4052777 -0.0098409653
-2.4118929 2.4050395 -0.0066485405
-2.2620358 2.4048271 -0.0037994385
-2.2178586 2.4022217 -0.0048057139
-2.1117864 2.4030182 -0.0022598207
-0.81849134 2.402493 -0.0049962997
-0.74739259 2.4087265 -0.0091630816
-0.60745156 2.4112246 -0.0058950186
-0.46744326 2.4139686 -0.0023055673
-2.25297 2.4222636 -0.0069215894
-2.061677 2.4343944 -0.00066369772
-0.35853624 2.4385626 -0.0011151433
-2.3928444 2.4427228 -0.0092775673
-0.88635916 2.442991 -0.0027791262
-0.75203788 2.4430127 -0.0067051649
-0.60970724 2.4447422 -0.0031657219
-1.3184114 2.4590583 -0.0038312674
-0.77083403 2.4530978 -0.0094269216
-3.4537957 2.4622936 -0.004352808
-2.2406621 2.4606137 -0.0018151999
-3.4267287 2.4716423 -0.0077196769
-0.24961823 2.4854071 -0.0091010779
-2.4245827 2.4991522 -0.0048211515
-0.60391653 2.4935246 -0.0042065978
1.035388 2.5059662 -0.004124105
-2.5256395 2.5172749 -0.0040954351
-1.0929259 2.5154605 -0.0075109005
-2.4603696 2.5203612 -0.0071527776
-2.3803928 2.5225277 -0.0057816505
-2.3278623 2.5206399 -0.0040944037
-2.1952372 2.5208611 -0.0016647396
-2.1072047 2.5284379 -0.0011873245
-2.6103761 2.5379715 -0.008180052
-0.81094414 2.5376425 -0.00075393915
-2.2483323 2.5484395 -0.0037133396
-2.561492 2.5546317 -0.0068767071
-2.4115367 2.5543389 -0.0033431053
-2.261719 2.5541124 -0.00060987473
-2.2253485 2.5552464 -0.0017472506
-2.3878789 2.5681732 -0.0060144216
-0.93217397 2.5640044 -0.0096232593
-2.5263081 2.5878944 -0.008950159
-0.88973272 2.5865452 -0.0071882606
-0.74904054 2.5891628 -0.003821373
-0.60827529 2.5917201 -0.0005325675
-1.0723298 2.6011593 -0.0027160645
-0.76684874 2.6048694 -0.004640609
-1.3588548 2.6252813 -0.0095580816
-1.0850886 2.6487741 -0.0030190647
0.86474788 2.6446257 -0.004077673
-2.5931954 2.6531959 -0.0074228463
-2.4607608 2.6535358 -0.0040044603
-2.3282175 2.653831 -0.0010346589
-1.7223403 2.657131 -0.0068780258
-2.4354064 2.660908 -0.0011116862
-2.5188892 2.6734557 -9.2148781e-05
-2.388366 2.6753292 -0.0024645925
-2.243891 2.674135 -0.00085115433
-1.0925169 2.6743655 -0.0096722245
-2.383106 2.6931498 -0.0030965805
-0.20951042 2.6901281 -0.0022809207
-2.7111096 2.7042377 -0.0072181225
-2.6214802 2.7005367 -0.0049382746
-2.5610828 2.7038846 -0.0033433437
-2.4111934 2.7035937 -0.00015449524
-2.5212457 2.7121718 -0.0060401559
-0.92876118 2.7156596 -0.0049260855
-2.657881 2.7309589 -0.0088229775
-2.8104632 2.7411046 -0.0079276264
-1.3519523 2.7566752 -0.0055263937
-1.2628337 2.764236 -0.0018863678
-1.1751062 2.7642746 -0.0078520775
-1.0336988 2.7666335 -0.0048687458
-0.89223343 2.7691197 -0.0017248392
-2.726068 2.7860651 -0.0073326644
-2.5936365 2.7864141 -0.0040944037
-2.4611301 2.7867436 -0.0010352549
-1.2515638 2.7844713 -0.0090614557
0.69290626 2.7839975 -0.0041268468
-1.7166232 2.7923393 -0.002509132
-1.1661248 2.8209696 -0.006896615
-1.089485 2.826067 -0.0047667623
-2.516073 2.835813 -0.0028817058
-2.102376 2.8433573 -0.0090472624
-3.0106344 2.8540761 -0.0098400116
-2.860642 2.8537817 -0.0068767071
-2.7105865 2.8533964 -0.0030021667
-2.6523328 2.8538642 -0.005480051
-2.6333947 2.8646617 -0.00079551339
-1.6119559 2.8614511 -0.0083515048
-2.787663 2.8719921 -0.0090227127
-1.3432404 2.8884449 -0.00043660402
-2.8217199 2.9054394 -0.0053783059
-2.858767 2.9188004 -0.0084118657
-2.7265744 2.919343 -0.0037352857
-2.5940661 2.9196768 -0.00085530849
-3.0837727 2.9244351 -0.0083571672
-1.4560688 2.9274001 -0.0026807189
-0.66462839 2.9222982 -0.0051561594
0.52005714 2.9245849 -0.0040317178
-3.0127196 2.9470065 -0.0094486177
-1.1793075 2.9487164 -0.0026046038
-1.3217827 2.9500208 -0.00098228455
-2.6466155 2.9761214 -0.0017599463
-2.0916553 2.972224 -0.0035147816
-1.0865709 2.9786143 -5.120039e-05
-2.7813032 2.9933708 -0.0045388937
-1.6051303 2.9911931 -0.0042878687
-3.0103931 3.0034914 -0.008130312
-2.8600678 3.0028901 -0.0025465488
-2.9154987 3.0109274 -0.0091549456
-3.4099293 3.0369468 -0.0083299279
-1.4085574 3.0447512 -0.0049636364
-2.9914484 3.0515175 -0.009490829
-2.8594513 3.0522218 -0.0038246927
0.34571058 3.0651882 -0.0043709278
-2.8351097 3.0722275 -0.00039288402
-3.0764453 3.0803802 -0.0058416128
-1.8575525 3.0913811 -0.0067517161
-1.6534566 3.0941381 -0.0034431815
-3.0239704 3.1130123 -0.0077735782
-1.6121763 3.1252275 -0.0096898079
-1.5985149 3.1210341 -0.00034829974
-1.469502 3.1298251 -0.0040663481
-2.9093451 3.1313457 -0.0056017637
-3.4593377 3.1532092 -0.0092709064
-3.2197771 3.1574049 -0.00977543
-3.0098319 3.1526141 -0.0041408539
-1.5673749 3.1525683 -0.0061196685
-2.0304768 3.1793914 -0.0045340061
-3.3905826 3.1848011 -0.0061634597
-3.1242313 3.1843123 -0.0098507218
-2.9919295 3.1847653 -0.0064338264
-3.4212646 3.1914902 -0.00059345365
-3.4571474 3.2008319 -0.0060771108
0.17068517 3.2079442 -0.0041298866
-3.2651641 3.2173758 -0.0087422729
-1.8507305 3.2195358 -0.0026126057
-1.7259426 3.2590888 -0.0084332824
-3.0356479 3.2673635 -0.0069696605
-1.8575393 3.2703443 -0.0014595985
-3.0368488 3.2811406 -0.0042966008
-3.458508 3.3021808 -0.0042555332
-3.415482 3.3097196 -0.00015261769
-3.159894 3.3025913 -0.0075609684
-3.3914351 3.3183298 -0.0014850912
-3.124455 3.3173418 -0.0085011534
-2.0508132 3.3132665 -0.0051330328
-1.9064685 3.3101335 -0.0089023113
-1.7626756 3.3110862 -0.0077559948
-1.6193 3.3163338 -0.0014432669
-3.2312317 3.3252602 -0.0087392926
-2.0344074 3.3255112 -0.0069987178
-3.4473431 3.3571515 -0.001819849
-0.0058104992 3.3508232 -0.0042775869
-1.8805102 3.3682492 -0.0052189231
-3.256577 3.3726678 -0.0052659512
-3.1572948 3.3999784 -0.0021763742
-3.2869582 3.4152064 -0.0073359311
-3.3090076 3.4517794 -0.0045964718
-3.2582912 3.4510369 -0.002834898
-0.18318725 3.495492 -0.0040348768
-3.1981976 3.5658312 -0.0032200813
-3.3958149 3.5966027 -0.00065868348
-3.4246686 3.6105032 -0.0078728199
-0.36197025 3.6404967 -0.0040847063
1.6543591 3.8717747 -0.0018745065
-2.2319775 -2.6754301 0.0091660619
-2.1219707 -2.6731994 0.0089997053
-2.0121446 -2.669107 0.0086945891
-1.9022095 -2.6653848 0.0084170699
-1.7921818 -2.6619697 0.0081625581
-1.6820699 -2.6588645 0.007930994
-1.5719992 -2.6546397 0.0076159239
-1.4618685 -2.6502872 0.0072914362
-1.1303377 -2.6514068 0.0073748827
-2.1814613 -2.6418691 0.0025594234
-1.3514873 -2.6486075 0.0071662068
-1.2410109 -2.6481099 0.0071290731
-1.0200174 -2.6474874 0.0070827007
0.41654462 -2.6494789 0.0072311163
-2.7831948 -2.6372967 0.0017520189
-1.8944907 -2.6319313 0.0012665987
-0.68875968 -2.6301036 0.0057865977
-0.57805264 -2.6360281 0.0062283278
0.97091532 -2.6320381 0.0059307218
1.0817248 -2.6306028 0.005823791
-1.9592687 -2.6268444 0.0082175732
-1.5747095 -2.6234648 0.0076905489
-0.46744251 -2.626734 0.0055353642
0.50123203 -2.6211011 0.0021076798
0.52879053 -2.6260471 0.0054841042
0.63962281 -2.6243615 0.0053584576
0.75019872 -2.6257977 0.0054655075
0.86102986 -2.6244242 0.0053631663
1.1935743 -2.6209896 0.0051070452
1.6362072 -2.6229255 0.0052514076
1.7471434 -2.6216135 0.0051535964
-2.1385002 -2.6182122 0.0071647763
-1.8860564 -2.6132045 0.0071547031
-1.4339442 -2.6181583 0.0018360615
-1.341934 -2.6149905 0.0061171651
-0.35665965 -2.6151137 0.0046690106
0.63018215 -2.6101859 0.0064694881
1.4157475 -2.6159897 0.0047342181
1.5265423 -2.6158638 0.0047249198
1.6592402 -2.6112278 0.0047699213
1.8583077 -2.6191139 0.0049672723
1.9706529 -2.6103597 0.0043144822
0.66517782 -2.608228 0.0030300617
1.3058833 -2.6091087 0.0042212009
-1.0847533 -2.5991163 0.0028874278
-0.68583477 -2.5908487 0.00015592575
0.7328819 -2.5957563 0.0025234222
2.0850692 -2.5914993 0.0029082894
-2.0432186 -2.5832999 0.0091537237
-1.9934045 -2.5886939 0.0045488477
0.43498737 -2.5871625 0.0087502003
2.1978827 -2.5822687 0.0022200942
2.2947505 -2.5891261 0.0058977604
-0.91184723 -2.5767374 0.0018076301
-0.94436812 -2.5632823 0.0019553304
2.2915082 -2.5611174 0.0016757846
2.3128734 -2.5632658 0.00080323219
-0.80127764 -2.5553217 0.00021100044
1.7115254 -2.5594249 0.0049441457
-2.3113604 -2.514034 0.0068930387
2.4340775 -2.5195875 0.0051909387
-2.3269758 -2.5044231 0.0084962845
2.1371756 -2.4337146 0.0060920715
0.52262992 -2.4244127 0.00036621094
2.3861043 -2.4243345 0.0075318217
2.408489 -2.4235749 0.004078567
-2.2610292 -2.3788247 0.0063354969
-2.3505049 -2.355756 0.0081119537
-2.4972527 -2.3228936 0.0026506782
2.4575167 -2.3003974 0.0079114437
-2.3089719 -2.2869525 0.0092668459
-2.4561875 -2.2795219 0.0033563673
0.69842458 -2.2514238 0.0072119236
2.4093416 -2.257906 0.0035911202
-2.5815797 -2.2363329 0.00060987473
0.016440719 -2.2065623 0.0020217299
0.0030574203 -2.1728299 0.0039782524
-2.5490499 -2.1644659 0.0099186897
-2.4728537 -2.1648388 0.0004273057
0.15119612 -2.123893 0.00073695183
1.7669884 -2.1275346 0.0005440712
2.1083627 -2.1125579 0.009516716
0.51290375 -2.1045218 0.0081644058
1.9248745 -1.9638963 0.0075509548
0.32931155 -1.9558152 0.0078785419
2.4493361 -1.9516538 0.0017618984
2.4461632 -1.8896505 0.0031254888
2.4371619 -1.8272028 0.0070654899
0.14753556 -1.8060454 0.0066592693
1.770365 -1.7458625 0.0021373034
1.3800889 -1.7155217 0.0010717511
2.2979741 -1.7149239 0.0027602315
-0.034229755 -1.6616185 0.0074088573
2.1471467 -1.6515694 0.001185596
2.263272 -1.6467749 0.0054965019
1.7578946 -1.5797598 0.0075328946
2.0087228 -1.5768745 0.0024017096
1.3707156 -1.5450324 0.0060015917
1.9973857 -1.5467077 0.0039221048
-0.21306825 -1.5123872 0.0055158138
0.97779667 -1.5013096 0.0014456511
1.7035265 -1.4865466 0.00042235851
1.8483225 -1.4458754 0.002897203
2.0446384 -1.4442364 0.0096588731
1.9204488 -1.4038591 0.0048565865
-1.0176865 -1.3965991 0.0032902956
1.5956148 -1.397732 0.0059890747
1.7060508 -1.3933256 0.0083934069
1.7331265 -1.3978076 0.0061691999
1.8510782 -1.3939539 0.0091370344
2.0823877 -1.3942136 0.0025937855
1.5514215 -1.3827151 0.0017844439
1.5602337 -1.3881629 0.0022841692
-0.39278501 -1.3709277 0.0067503452
1.83512 -1.3540896 0.004147619
1.6954389 -1.3448597 0.0082437992
0.9695158 -1.3301598 0.0066649914
0.57012337 -1.2768557 4.7713518e-05
1.3985665 -1.2781659 0.0029373169
1.6171043 -1.2623411 0.00063329935
1.4667677 -1.2508471 0.0086823702
-0.93483871 -1.2492357 0.0032826662
1.1911973 -1.2478589 0.0017222166
1.3291761 -1.2487516 0.0038015842
1.5438485 -1.240593 0.0091953278
1.8275993 -1.2348543 0.0090575516
-0.57071704 -1.2283851 0.0070554018
1.7025684 -1.2265694 0.0058097839
1.1433877 -1.2181535 0.0019544959
1.2610766 -1.2033443 0.0043010712
1.4055076 -1.2056649 0.0070924759
1.2444253 -1.1734904 0.0048890114
0.97478902 -1.14886 0.0071711242
1.6094167 -1.141533 0.0055627823
1.9669586 -1.1327853 0.00081950426
0.56567502 -1.1028401 0.0046546161
1.1982806 -1.1013553 0.0084959269
-0.74777949 -1.0875863 0.0077455044
1.148965 -1.0819278 0.0023840666
0.14335823 -1.0533562 0.0013466179
1.4922043 -1.0592946 0.0096703768
1.3787191 -1.0469836 0.0063491389
1.8237771 -1.0440758 0.0038748682
1.2430098 -1.0250286 0.0019342303
0.82140899 -1.0162623 0.0010727644
0.96453726 -1.015662 0.00033843517
1.1077729 -1.0159295 0.00066530704
1.2510674 -1.0165298 0.0013997555
1.9680039 -1.0101911 0.0079642832
0.78330374 -0.99879575 0.0021166801
0.93563032 -0.96008873 0.004919529
-0.92338425 -0.94677287 0.007997632
0.64872897 -0.94782424 0.0024673939
0.78799903 -0.9492166 0.0055701733
0.92743456 -0.94950378 0.0062092543
1.0671396 -0.94852066 0.0040187836
1.2068049 -0.94786566 0.0025589466
1.0866296 -0.92150319 0.0071896911
1.378123 -0.9232024 0.0067239255
0.85655653 -0.91461205 0.00928092
1.8132811 -0.90836406 0.0071985275
0.6258682 -0.89123929 0.0029987097
0.70256573 -0.89787674 0.0067455173
-0.71879029 -0.88982838 4.4345856e-05
0.13679999 -0.88133037 0.0073477328
0.54695785 -0.88095117 0.0040985942
1.2368398 -0.88247752 0.0079342723
1.2767859 -0.87441695 0.0033800602
1.4837209 -0.87764317 0.0047308654
0.38975069 -0.86385167 0.001424253
0.77834588 -0.85409153 0.0077639222
0.81500626 -0.84022015 0.008921504
0.89772862 -0.84578454 0.0022491217
0.90683055 -0.84888744 0.0028543547
0.52959162 -0.8355844 0.0031563044
0.67225122 -0.83773839 0.0058351755
1.1456125 -0.82377362 0.0047936509
0.37366796 -0.79548943 0.0024328232
0.5136683 -0.79683459 0.0053665638
0.65362024 -0.79813766 0.0082083941
1.3781898 -0.79931235 0.006682463
0.46753433 -0.78306949 0.0038856864
0.55376983 -0.74173528 0.0095769763
0.62138915 -0.74625385 0.0084411502
0.66013688 -0.74597263 0.0017290264
1.4857095 -0.74578691 0.0028410777
0.3962664 -0.72388279 0.0069252849
0.90090907 -0.72250605 0.0064468756
1.0755353 -0.7148571 0.0074264407
0.23708558 -0.70582461 0.0041578114
0.076056868 -0.68749464 0.0010094941
0.69875157 -0.68034309 0.0027087927
0.3087396 -0.67388034 0.0040460825
0.24073076 -0.65422654 0.0019060373
0.3825593 -0.65665245 0.004974246
0.52442724 -0.65882349 0.0077201128
1.232643 -0.6571635 0.0056203604
-0.28883892 -0.64199972 0.0052923262
0.096035182 -0.64096344 0.00082993507
0.23674482 -0.64260411 0.0043321848
0.37746757 -0.64359677 0.0064510107
1.0817255 -0.6428194 0.0047918558
1.2221576 -0.64454544 0.0084761381
0.46449623 -0.63693404 0.00752002
-0.90379542 -0.62932879 0.0014628172
0.65540475 -0.61764741 0.0045461804
1.4771582 -0.60662889 0.0047407746
0.89674634 -0.59578836 0.008971706
1.2327468 -0.59101689 0.0045439601
1.1523672 -0.57189763 0.00061851839
0.14955178 -0.56364179 0.0033974051
0.24267432 -0.56419206 0.0084755421
1.242172 -0.56198752 0.0015323758
-3.5876305 -0.55940753 0.0015590787
0.87646919 -0.55417114 0.0092736483
1.3799093 -0.55133426 0.0055995435
0.081363916 -0.54510045 0.0054315031
1.6028116 -0.53115177 0.0097980797
-0.081693679 -0.52578545 0.0022660792
0.30573606 -0.5279218 0.0082730651
0.40143746 -0.51011109 0.0036044121
0.50416154 -0.518938 0.0034460425
-0.042854786 -0.48656189 0.0026394129
0.098538995 -0.48833323 0.0063417554
0.23851064 -0.48490256 0.0083250701
0.64906657 -0.48941684 0.0083198696
-0.044909954 -0.47482955 0.00059074163
0.096081257 -0.47757518 0.0041221976
-0.011162966 -0.45334303 0.0037781596
-3.6015384 -0.44505879 0.0041741133
-3.3780203 -0.42310727 0.0095620155
0.14634192 -0.41805732 0.008592695
-3.5264201 -0.40410697 0.0094121881
1.9256517 -0.40356505 0.0034669819
-0.73082286 -0.3999989 0.004741028
0.14126933 -0.39945698 0.0021009147
-3.4001958 -0.38014126 0.0017519891
-0.076110095 -0.38223624 0.0077911615
0.39443648 -0.38010013 0.0076933205
0.75159454 -0.37957576 0.002848208
-3.5796921 -0.36829373 0.0061594099
-0.24142563 -0.36181891 0.0042570829
0.31387824 -0.36161479 0.0045443773
-0.40830758 -0.34127605 0.0010439754
-0.17226931 -0.34199333 0.0033471286
1.5881286 -0.34027347 0.0047004521
-0.18306401 -0.33102477 0.0051159263
-0.040975332 -0.33279634 0.0087420344
-0.32521611 -0.32902443 0.0010223389
1.4519273 -0.32140937 0.0024023056
-3.307657 -0.30662441 0.0097801685
-0.047036588 -0.30279493 0.0063160658
-0.01385808 -0.30749607 0.0087658167
0.093247294 -0.30554354 0.009911716
-0.18725502 -0.29974258 0.0023230314
-3.3663974 -0.28137028 0.0033118725
1.3267437 -0.28675759 0.00030064583
1.4759148 -0.28651989 0.0034906864
1.6254703 -0.28656232 0.0029205084
1.3934971 -0.27036166 0.00040485291
1.5268024 -0.27061534 0.0034656706
1.6601106 -0.27083921 0.0061682644
1.7922336 -0.27033937 0.00013484387
0.13426939 -0.2675488 0.0061130822
1.4047675 -0.26608002 0.00019338727
1.6771979 -0.26657951 0.0038808286
1.8648019 -0.25478256 0.0011170208
-3.5851316 -0.24600083 0.0076465979
1.5883088 -0.24585462 0.004786551
-0.33456385 -0.23025084 0.0033587217
-0.73059928 -0.22524834 0.0099898577
1.4870025 -0.22573578 0.0013325512
1.7806007 -0.22288299 1.1056662e-05
-0.23670097 -0.21656656 0.0088427067
1.5896422 -0.21246624 0.0088916719
-3.4372435 -0.20130658 0.0021258295
0.12715966 -0.20673248 0.0052469373
-0.40378064 -0.19527364 0.0059184432
-0.17434573 -0.19582295 0.0079809427
1.453126 -0.19296488 0.0064737797
0.35221332 -0.18025333 0.0033366159
-3.5665317 -0.1781745 0.0085654259
-0.57238746 -0.17387605 0.0034151077
-0.46744329 -0.17188632 0.0033174157
-0.32457805 -0.17351747 0.0065876842
1.3153435 -0.17331463 0.003899008
-3.3018694 -0.1652762 0.0012421608
1.122461 -0.16089761 0.0022221208
-0.7432344 -0.15204942 0.0001565516
-0.13181813 -0.15168619 0.0036735535
1.1762043 -0.15347072 0.0012997091
-3.4194391 -0.14811468 0.006772548
1.8610307 -0.14789772 0.0066777766
1.1771348 -0.13717413 0.001326561
1.2228359 -0.13227093 0.00019079447
1.2606891 -0.13751793 0.0014858427
1.3262912 -0.13694036 0.0048551559
1.3939782 -0.13774621 0.0045476737
1.475376 -0.13669896 0.0084985495
1.5273174 -0.13797462 0.00761022
1.7741023 -0.13660848 0.0098625422
-0.46744338 -0.12496006 0.0019723773
-0.32808286 -0.12716746 0.0049099922
-0.18865338 -0.12967551 0.0082471967
-0.49777794 -0.11787581 0.0033703148
1.4046147 -0.11154747 0.0052479804
1.6733618 -0.11024469 0.0092437267
-3.3795023 -0.096751213 0.0064527988
1.8312241 -0.095311522 0.0086578578
-0.3361038 -0.083831549 0.0077828467
1.4832295 -0.070197046 0.0061180592
-0.056248665 -0.053781629 0.0053342581
1.3161225 -0.043422252 0.0080744922
-0.405826 -0.03254509 0.0013480186
0.95780528 -0.039932013 0.0020486116
1.2953212 -0.030566931 0.0028758645
-0.56819487 -0.026386857 0.0083303154
0.32781225 -0.021140933 0.0081874803
1.1766576 -0.0229249 0.0053518862
-3.3179283 -0.011220723 0.0096108764
-0.46744215 -0.014793515 0.0086371303
-0.13962308 -0.017771602 0.0080618858
-3.2603903 -0.0050979853 0.0092314668
-0.73951578 -0.0036588907 0.0049081147
-0.66186804 -0.0048263073 0.0033065081
1.0357766 -0.0022026002 0.0026702881
1.1189135 -0.0053293109 0.0067104399
1.1278558 -0.0046502352 0.0024758163
1.2611254 -0.0048532486 0.0055380049
1.3944482 -0.005056262 0.0086016841
1.0418211 0.00079131126 0.00028327107
-3.3070359 0.012715697 0.0079295635
1.0275236 0.012405396 0.0025802851
1.1767095 0.012603521 0.0059945583
1.3258377 0.012801409 0.0094091892
-0.49916595 0.028495789 0.0081785619
-0.060170233 0.024945796 0.00062613934
1.222321 0.022187829 0.0051355958
-3.2209914 0.047619462 0.0037716925
-0.744578 0.048452973 0.00091415644
-0.60604501 0.045944452 0.0043100715
-0.46744376 0.043609858 0.0074702501
1.4047992 0.043857932 0.0098477006
0.79229647 0.081660688 0.0018739104
1.9719893 0.085874379 0.0073668957
2.1843138 0.080135763 0.0064666867
-0.23569956 0.095373988 0.0057859421
-0.82704437 0.10875642 0.0034677386
-0.41472766 0.10329449 0.0062565804
1.1771501 0.10835353 0.0093604028
0.9547649 0.11572766 0.0066382438
2.3460557 0.11994237 0.0029906183
0.86180735 0.12840617 0.00049449829
0.9950037 0.12823379 0.0034666243
1.035825 0.12981096 0.0067591742
1.1282662 0.12805104 0.0066186371
1.2615718 0.12787336 0.0096828528
1.2918904 0.1232143 0.007381916
0.86196721 0.1332202 9.1969967e-05
-0.66305983 0.14153779 0.0084263086
0.89308769 0.15148297 0.0041323826
1.041135 0.15525866 0.0048357844
-0.90884829 0.16900933 0.0070692301
0.72868907 0.16178322 0.000187397
0.87795031 0.16195303 0.0036035776
1.0271465 0.16212845 0.0071320534
1.107044 0.16116154 0.0044683814
0.74899709 0.17332506 0.0013413578
1.2220649 0.17749333 0.0097243786
2.0569952 0.18395871 0.0018833876
2.3353653 0.18877524 0.0072816014
-0.088553548 0.19024619 0.0057642609
0.92450613 0.19860977 0.0016689599
0.62597287 0.20392334 0.0017897785
-0.88095254 0.21832383 0.0021449327
-0.74319899 0.21535754 0.0062308311
-0.60535765 0.21278906 0.009768486
-0.69732416 0.22791398 0.0041194558
0.789859 0.23748404 0.0067478716
-0.41169125 0.24183905 0.0060924888
-0.82742351 0.25554413 0.0080043375
0.68288743 0.26485837 0.00018399954
0.72896349 0.26127756 0.0015755477
0.86214328 0.26112986 0.0045474949
0.99538124 0.26097757 0.0076103988
0.86066544 0.28750348 0.0049157143
0.89275724 0.284971 0.0081892237
1.925705 0.29805472 0.0021782517
0.74816173 0.30759686 0.0055485293
0.57910633 0.31134683 0.0013260841
0.72838759 0.31148833 0.0047422647
0.87761164 0.31162977 0.0081567764
1.0403819 0.31043708 0.0095059574
1.104314 0.31300104 0.0091632754
0.45887816 0.32689542 0.0018871129
0.60194093 0.33054996 0.0031574965
0.92202032 0.34957737 0.0060347766
0.45430899 0.35368818 0.00060390681
0.62392175 0.35972065 0.0064957291
-0.70481908 0.36605626 0.0081720352
-0.87888646 0.38395768 0.0068023205
-0.58437639 0.38585502 0.0061688423
0.74198908 0.38567609 0.0030204356
-0.99942744 0.39390194 0.0090518333
0.46311063 0.39420038 0.0018463912
0.50488704 0.39585018 8.72612e-05
0.5961014 0.39416683 0.0026554647
0.72925794 0.3940475 0.0055380049
0.86248684 0.39391685 0.0086916275
-0.52854168 0.41358241 0.0029779077
0.68135226 0.41912568 0.0047115088
1.7919607 0.41467831 0.0027602911
0.56440175 0.4211666 0.00042065978
0.747361 0.44263816 0.0097110085
0.85948396 0.44257772 0.0095727742
0.39755294 0.45083529 0.0096147507
0.2798093 0.46108019 0.0081568956
0.42951959 0.46090668 0.002920866
0.57883573 0.46100849 0.0059942007
0.60078365 0.46629697 0.0071954466
0.72807777 0.46112168 0.0094085932
0.45735303 0.48277318 0.0066959634
0.44988549 0.49194175 0.0094028935
0.30225763 0.51486248 0.0034906082
-0.75374949 0.52722865 0.0061550736
0.32571158 0.52506804 0.0033598691
0.33021975 0.52710688 0.0027459743
0.46325207 0.5270561 0.0042769196
0.59636962 0.52697551 0.006709266
0.72956038 0.52687997 0.0095927306
0.74022198 0.5347321 0.0076498985
1.6559372 0.53283435 0.0030275583
0.50281316 0.54995567 0.0047914982
0.56281084 0.56941503 0.0046510696
0.12183502 0.57458067 0.0016258582
0.67968678 0.574067 0.0094507337
-0.55914015 0.58639902 0.0076745711
0.29011697 0.60660195 0.0072615668
0.38811758 0.60331517 0.0025152117
0.13062418 0.61033255 0.00018787384
0.27996087 0.61044008 0.0045138597
0.42931074 0.61050516 0.0071315765
0.4510532 0.62754834 0.0087995976
-3.1703348 0.6438489 0.0027775764
-0.99539953 0.65058279 0.00015087426
0.30121043 0.65234154 0.0058942586
0.46344435 0.65992975 0.0076100114
1.517482 0.65298712 0.0032171607
-0.92037749 0.66744179 0.0053043365
0.19721967 0.66008419 0.0013952437
0.33030832 0.66000587 0.0045473757
0.14982365 0.67739016 0.0029587417
0.32534862 0.68014771 0.0046828836
-0.048138618 0.6993106 0.001264967
-0.0032216311 0.70275277 0.00013446808
0.5007298 0.70478964 0.0095173866
0.56145257 0.71677768 0.009162575
0.12119158 0.73047793 0.006278269
-0.018918335 0.759866 0.0012123585
0.13047212 0.75992441 0.0047420263
0.27979994 0.75998485 0.0083842278
0.38654652 0.75011963 0.006104365
1.376478 0.77541095 0.0034524798
0.21365175 0.78309995 0.0030091926
0.064317226 0.79300183 0.0022954675
0.1973871 0.79294956 0.0054471972
0.29917213 0.79124558 0.0099363811
0.33051062 0.79289734 0.0086008199
0.14888333 0.80967981 0.004482016
0.04289557 0.81562841 9.8325312e-05
0.14714269 0.81719899 0.0072963461
-0.21875429 0.82487166 0.0013620853
0.32296944 0.83493948 0.0092082024
-0.0063833315 0.84336704 0.0044863559
-0.048187256 0.85532099 0.0061127245
-0.16137873 0.86972374 0.0014323369
-1.007488 0.8786366 0.0093279779
1.5747416 0.89286911 0.0081939101
-0.16844559 0.90938336 0.0023516417
-0.019031405 0.90941167 0.0057669878
0.13032115 0.90944088 0.0092946291
1.2328105 0.90032291 0.0038176179
-1.0714893 0.92626107 0.004776001
-0.20159945 0.92595977 0.00013549207
-0.068599015 0.92593366 0.0032869759
0.064454079 0.92590755 0.0064384821
0.19755578 0.92588216 0.0095023103
0.21323329 0.92779732 0.0075344741
-0.026648693 0.93852746 0.0042818412
1.1129915 0.93128633 0.002033636
-0.39057979 0.95088983 0.00090567023
0.042846825 0.95942992 0.0045301616
0.14609411 0.96436667 0.0089955851
-0.21840367 0.98085308 0.0060386807
-0.0094292946 0.98475564 0.0086493567
-0.12550226 0.99066311 0.0016343892
-0.16510089 1.0120505 0.0058957264
1.0865448 1.0272567 0.0040200353
-0.32227379 1.0395443 0.0028956234
-0.33451599 1.0588819 0.0007646787
-0.31795293 1.0588819 0.0033755302
-0.20153219 1.0588819 0.0041861567
-0.1685192 1.0588819 0.0067918301
-0.068498075 1.0588819 0.0073393765
-0.56342971 1.0775145 0.00026274472
-0.029958498 1.0930413 0.0089692846
-0.38982919 1.1068497 0.0054124817
0.042799897 1.1025234 0.0089391619
1.1048644 1.1040927 0.0070376918
-0.12539259 1.1329983 0.0056593865
-0.1685674 1.155077 0.0099540204
0.93757325 1.1564202 0.0041416883
-0.29143474 1.1630024 0.0027074143
-0.32629055 1.1834416 0.0070385486
-0.46744296 1.191816 0.0015757848
-0.33448231 1.1918428 0.0048170309
-0.20146608 1.1918705 0.0081497841
-0.73687804 1.2050115 0.00017149746
-0.61695731 1.2083964 0.00041604042
-0.46744245 1.2083663 0.0040583611
-0.31798846 1.2083361 0.0077011585
-0.48559245 1.2120459 0.0039459616
-0.56195456 1.2336466 0.0051524267
-0.64664489 1.2409871 0.00089415908
0.78577709 1.2880318 0.0042647719
-0.29057151 1.303545 0.0072051585
-0.600384 1.3247634 0.002386048
-0.4674435 1.3248186 0.0057179728
-0.33444789 1.3248739 0.0090514384
-0.45441288 1.3323839 0.004124999
-0.76645613 1.3578959 0.0013263226
-0.61691952 1.3578355 0.0049698353
-0.49029824 1.3577882 0.0083463341
-0.46744281 1.3577752 0.0086121559
-0.73504996 1.3610843 0.0047963709
-0.61652648 1.3609774 0.00086393952
0.55822635 1.3773515 0.0040406287
-0.65173113 1.3875043 0.0050888062
0.88887441 1.3965278 0.00011795759
-1.1791804 1.407452 0.0054591894
-0.81520355 1.4177338 0.0022378266
0.63100648 1.4224057 0.0045212507
-1.0845783 1.4402926 0.0031710777
-0.86621153 1.4576504 0.0002251151
-0.7333408 1.4577289 0.0033760252
-0.60042012 1.4578116 0.0067091691
-0.46744335 1.4578878 0.0097720064
-3.1703348 1.473915 0.0027775764
-0.45331135 1.4714609 0.0083671696
-0.90889764 1.4892938 0.004719317
-0.61471254 1.4990023 0.0055909157
-0.91593236 1.5073718 0.0025789738
-0.76637381 1.5072784 0.0063357353
-0.61688209 1.5071993 0.0095221996
-0.77452213 1.5263666 0.0024900623
0.55399895 1.541114 0.0091086179
0.47321355 1.5594643 0.0048261285
-0.820916 1.5660975 0.0065462142
-1.2606561 1.5926657 0.0032668114
-0.99917984 1.5906181 0.0015756818
-0.98714304 1.597832 0.0042765141
-0.86630845 1.5907016 0.0040969732
-0.73341 1.5908151 0.0075205895
-0.72453415 1.6012176 0.0082200021
-1.0834399 1.6183014 0.0050120503
-1.1553135 1.6299852 0.002130419
-0.61314154 1.6365085 0.009937644
0.044122726 1.6344361 0.00075221807
0.67480731 1.6385761 0.003988266
-0.90667599 1.6444228 0.0091447532
-1.2149913 1.6569213 0.00098490715
-1.065387 1.656827 0.0038313866
-0.91583604 1.6567402 0.0064502954
-0.77294683 1.6632376 0.0062505603
-0.93022853 1.6892539 0.0037364736
-1.0606682 1.6975362 0.0031014383
0.31246752 1.6987784 0.0049156547
-1.0856345 1.714905 0.0014621094
-1.7968209 1.7235708 0.0020255032
-1.3982949 1.723776 0.0069796625
-1.2649713 1.7234888 4.4721644e-05
-1.132162 1.7236006 0.0027462426
-0.99931109 1.7237163 0.005538437
-0.89549106 1.7269058 0.0072736964
-0.86640888 1.7238245 0.0081504919
0.49214745 1.7293459 0.00055140257
-2.7230101 1.7337902 0.0082587004
-1.6794286 1.7336463 0.006376043
0.62949896 1.7316873 0.0038327575
-1.2590187 1.7479317 0.005120486
-0.99334633 1.7479904 0.0084788054
-2.5804863 1.7546455 0.0054706037
-1.0805838 1.7735147 0.0096335113
0.35621631 1.7722163 0.0013324022
-1.1616555 1.7807988 0.0057479292
0.68419015 1.7839344 0.0087649822
0.042339146 1.7919391 0.0056512654
-2.2809365 1.8000448 0.0074443221
-1.3644781 1.8064122 0.0014405251
-1.2148315 1.8062707 0.0048549175
-1.065244 1.806134 0.008156538
0.40274793 1.8039206 0.00027984381
0.54753113 1.805932 0.0040745735
-2.5743439 1.8169775 0.0007327199
-1.331996 1.8140776 0.003213957
-2.8227782 1.8281305 0.0059421137
-2.6924791 1.8260936 0.0092998073
-2.6464136 1.8283803 0.0032956004
-1.2299219 1.821703 0.003000021
-0.92798233 1.8244715 0.0079594031
-1.5039546 1.847548 0.00027103722
-1.0832539 1.8494394 0.0053159297
0.14847481 1.8410947 0.0051414371
0.57083035 1.8486643 0.0026290715
-1.6175889 1.8529906 0.00046601892
-1.3979342 1.856446 0.00076522259
-1.2651368 1.8565757 0.0033763829
-1.1323116 1.8567234 0.0063489261
-1.066164 1.8514986 0.0074369907
-0.9994424 1.8568802 0.0095022656
0.68085849 1.8538439 0.003287375
-2.6834116 1.8668002 0.0011381172
