# .PCD v0.7 - Point Cloud Data file format
VERSION 0.7
FIELDS x y z
SIZE 4 4 4
TYPE F F F
COUNT 1 1 1
WIDTH 1457
HEIGHT 1
VIEWPOINT 0 0 0 1 0 0 0
POINTS 1457
DATA ascii
-13.1800348 -3.2202444 2.7259276
-6.6959488 -3.12907076 2.75652432
-6.6943484 -3.05313824 2.7579534
-2.39292072 -3.05837512 2.75169708
-7.4136428 -2.97150232 2.74047804
-7.7214136 -2.94323444 2.7403848
-13.7974032 -2.89055584 2.7215886
-7.7091864 -2.8042488 2.75316048
-13.6076156 -2.75244856 2.75760984
-3.35764144 -2.6492698 2.73536204
-3.02059628 -2.66944456 2.73502396
-3.02480768 -2.5642426 2.73018552
-2.65874696 -2.47169636 2.73028968
-7.714018 -2.2831626 2.73033476
-4.0657892 -2.15936564 2.73194552
-4.171898 -2.09533692 2.7206812
-3.595999 -2.09399176 2.73544312
-3.02031804 -2.09249304 2.75188684
-3.66424964 -2.07697796 2.72678256
-3.03910208 -2.0060818 2.7461052
-3.34260036 -1.9952922 2.75612616
-2.64669084 -1.86366176 2.74979068
-3.3198576 -1.70703172 2.73636628
-4.7761076 -1.66529368 2.73137332
-4.3023332 -1.59302544 2.72666312
-3.98416256 -1.553154 2.725008
-4.7472612 -1.519454 2.72489644
-4.1712732 -1.5182314 2.73966028
-4.0480196 -1.50473356 2.75349544
-3.68053412 -1.51936864 2.74363708
-3.59553076 -1.5170088 2.75441504
10.863844 -1.40893172 2.74375056
-7.4133176 -1.30801724 2.73656704
-4.6410436 -1.30701208 2.72443296
-4.0872944 -1.30827664 2.73969864
7.5892516 -1.30524396 2.7471552
-5.4918664 -1.16944884 2.7286458
-4.9359168 -1.11090232 2.72426796
-3.30553984 -1.1064086 2.75697564
-4.757908 -1.01172732 2.75013064
-4.3202036 -1.03584028 2.74380396
-7.9944464 -0.95552684 2.72711752
-5.322612 -0.94373608 2.72785092
-4.7465984 -0.94276144 2.7409258
-4.1706744 -0.941504 2.75778864
-3.96950268 -0.95537424 2.74361992
-4.625176 -0.80667116 2.73167992
-1.97221564 -0.81934524 2.72206068
7.5735084 -0.80317116 2.7351222
-5.195532 -0.75310804 2.72912788
-4.6417752 -0.75407124 2.7420442
-4.087824 -0.75509308 2.75574876
-6.2104944 -0.66993736 2.72770428
-5.2725688 -0.66040324 2.72145464
-5.5682544 -0.63221504 2.72545816
-4.9555236 -0.554219 2.74201344
-5.4704196 -0.51492144 2.74889564
-4.3370456 -0.47556352 2.75905848
7.8162688 -0.42540288 2.72026348
-5.8978168 -0.367954732 2.73249196
-5.3217124 -0.36706066 2.745986
-4.7458116 -0.36613846 2.75989724
-4.6083732 -0.216056824 2.75138952
-6.9344564 -0.168407916 2.72494792
-6.3035188 -0.198218824 2.720129
-5.7500492 -0.199074744 2.73304248
-5.196386 -0.199956892 2.74634932
7.6856412 -0.192214012 2.72807168
-6.196166 -0.155303716 2.72437048
7.383818 -0.14748144 2.74031784
-6.3854688 -0.089460372 2.73163128
-1.99375568 -0.110612392 2.72043608
-5.5879992 -0.07521558 2.74087928
-5.2550648 -0.072838308 2.73981952
-6.1874436 -0.0156278612 2.74693464
-7.0759144 0.00080871584 2.72403072
-4.9746808 0.0052542688 2.75886108
9.2341288 0.036976576 2.72999144
-5.8943616 0.068636416 2.72868492
-7.0492544 0.207040308 2.72489976
-6.5252172 0.207383156 2.72016716
-6.4729436 0.207749368 2.73713112
-5.8967872 0.208507536 2.75020028
-6.82209 0.318526744 2.72555448
-7.657214 0.33937192 2.72977948
-7.4119888 0.35597658 2.72052168
-6.858352 0.355522872 2.72834588
-6.3047136 0.354955436 2.73813104
-5.7510492 0.354251624 2.750268
-6.21831 0.40077828 2.74170016
-6.9073096 0.4873004 2.74676276
-6.4127148 0.50023484 2.7492304
-5.6085324 0.48392176 2.75768232
-5.2378236 0.51210688 2.7577808
-1.94680132 0.5438218 2.74337148
-13.80422 0.5869248 2.7412758
-7.1052132 0.59386776 2.7413764
-5.875544 0.64985228 2.74688816
9.3172884 0.72201872 2.73457528
-7.6239492 0.78302072 2.73460008
-7.4462992 0.78904032 2.72963572
-7.0479008 0.78343988 2.74303292
-6.5052008 0.78522872 2.73798132
-6.4718012 0.7840054 2.75441648
-6.845576 0.8742416 2.74284696
-7.4134144 0.90934228 2.7377398
-7.125832 0.91731072 2.73318196
-6.8596344 0.9089532 2.74557208
-6.305854 0.90846656 2.75535488
-6.2398672 0.95975972 2.75780892
-2.44290352 0.93370344 2.72960736
-7.6264028 0.99601912 2.75343372
-1.91859032 1.20536064 2.75952148
-13.575322 1.34495784 2.74032736
-7.6219572 1.35943388 2.75863028
-7.4738828 1.34258844 2.75237896
-6.4846012 1.35983468 2.75695012
-6.8684916 1.43286132 2.75891064
-7.1011152 1.48621012 2.7573018
-3.62721156 1.55915 2.73513508
-13.4901592 1.62549496 2.74484824
-7.7291408 1.62634252 2.72332932
-3.35034824 1.67570208 2.73556328
-8.089424 1.8146962 2.74285436
-2.15330292 1.9122156 2.7209258
-2.88591884 2.02690744 2.72976184
-2.44559192 2.1565664 2.7220006
-4.041936 2.17731404 2.73481916
-13.910268 2.5239656 2.75791932
-2.85668684 2.57821272 2.7474954
-3.9480872 2.601614 2.72239876
-4.7316056 2.67201852 2.73145388
-3.03019784 2.76860072 2.73696708
-13.851452 2.92603492 2.7593832
-8.1231516 2.94550276 2.7392788
-3.30402996 3.06134556 2.72732496
-3.9191482 3.14568804 2.74028756
-2.88093732 3.13112092 2.7327814
-5.4172324 3.16519068 2.7287574
-14.093794 3.21880124 2.73895572
-4.1792372 3.44296648 2.72447728
-3.60161664 3.44832064 2.73314048
-8.135662 3.51855088 2.72837948
-3.94528724 3.52675772 2.72525524
-13.8916036 3.58040548 2.73810624
-13.7386044 3.57165764 2.75541568
-3.74898028 3.60762332 2.7316146
-6.0975588 3.65957332 2.728477
-3.29824544 3.64128064 2.73971008
-4.955258 3.69794584 2.73190116
-3.89307572 3.69035388 2.75640248
-4.5830916 3.98966028 2.72319244
8.3438856 3.99437736 2.7492118
9.667984 4.0497684 2.73408748
-8.1602772 4.0856828 2.74185752
-6.440938 4.1005572 2.72402312
-4.6461716 4.0987836 2.7294066
-3.93971588 4.1075576 2.7403972
-3.59314632 4.116192 2.72109388
-3.09324168 4.0948024 2.7415724
-6.7747288 4.1502956 2.7275436
-4.7415752 4.1222948 2.73115348
-4.1667288 4.1299208 2.74372484
-13.5381288 4.161626 2.7227094
-13.9172688 4.2355276 2.72449684
-8.2002116 4.2355276 2.72532224
-5.963534 4.2355276 2.72393252
-4.9284548 4.2355276 2.74877668
-3.31101964 4.2126152 2.72149372
-4.390318 4.3139704 2.73289252
9.0442812 4.3526824 2.72468948
-5.0257532 4.4197684 2.72295284
-5.2150032 4.4517824 2.72546244
7.7000952 4.4952508 2.72480108
8.7280428 4.5392448 2.74732352
-4.5756156 4.5728456 2.74481488
-14.0303688 4.7116736 2.74494268
-6.9083944 4.7409096 2.72131656
-7.4132856 4.7898788 2.73617412
-6.8947044 4.7695928 2.74700664
-6.4490252 4.7954596 2.73304556
-6.3353532 4.761234 2.73397016
-5.9103736 4.7664924 2.758013
-5.8691176 4.7977788 2.74312212
-5.7773604 4.7631636 2.73697948
-5.2202796 4.7755952 2.75636864
-5.8382908 4.915356 2.73727296
8.3238792 4.896408 2.73896552
-2.6431198 4.965908 2.75556396
-5.2061204 5.0372444 2.75292276
-5.6571164 5.1162052 2.73949932
-3.98322628 5.1154832 2.75403284
-13.8468476 5.1855024 2.7468238
7.415278 5.7088532 2.72680376
-13.573472 6.3041592 2.72838284
6.7827524 6.6084032 2.72609304
6.7858036 6.7277664 2.75915384
6.0571604 7.0846676 2.7251544
5.0499164 7.1652704 2.74536968
5.6819188 7.42387 2.72090768
5.8795528 7.6561472 2.72914408
3.7549522 7.8627528 2.72782468
-13.8429224 8.0357512 2.74977444
-13.8558408 8.5095788 2.74006464
-14.1574688 8.8730908 2.75863576
-14.1381264 8.9699984 2.74056004
-13.8712864 8.9828796 2.72845888
-13.8772756 9.9316084 2.7239604
-13.9606372 10.128874 2.72224236
-13.8800412 10.4059104 2.72187996
5.5451436 10.737398 2.73211052
-9.5283348 11.3736964 2.7409854
-3.83783104 11.4399032 2.74872852
-13.9242632 11.531596 2.73941732
-6.4721884 11.7144604 2.74851276
-6.7036744 12.0991516 2.72874332
-6.1276736 12.1636772 2.74888492
-9.2630604 12.3229912 2.73401832
-6.1778988 12.3217248 2.75014208
-6.9910156 12.4418296 2.7446816
-13.8660124 13.017742 2.75850536
-13.8816492 13.5314436 2.73535824
-13.8429604 14.5048048 2.72160388
-13.861376 14.6819536 2.73590612
-3.28900956 18.2691784 2.73349644
-3.35301064 18.3805484 2.74958228
-2.50556232 18.4709548 2.74176216
-1.64669944 18.7129956 2.74500372
0.63096692 18.8255692 2.73530628
0.49683284 18.90197 2.74343848
-5.9662932 19.3126068 2.75267936
-6.0495256 19.4249324 2.74848652
2.35345648 20.1239032 2.72770308
2.62351964 20.5190316 2.72630072
3.1631632 20.5233992 2.72233532
3.70356512 20.5409392 2.72976588
4.2376172 20.558092 2.73710968
4.7655664 20.5750504 2.74436428
5.0483184 20.5983372 2.74593164
5.2875144 20.591814 2.75153876
5.139998 20.6031912 2.72200204
4.7127752 20.71875 2.74673868
6.6762024 20.8428232 2.72497224
7.0946516 20.8936996 2.72623684
6.2316996 20.9521256 2.7276888
7.4992024 21.0161896 2.72928096
7.9153468 21.06719 2.7305484
7.3793872 21.0867044 2.7201748
7.996316 21.2238504 2.72361516
-13.5711916 -10.8191288 2.7833972
-13.1019288 -10.820074 2.77728652
-12.6090744 -10.7887124 2.77018548
-12.1148644 -10.7643252 2.76321124
-12.0523616 -10.7314464 2.76086904
-11.3324252 -10.7234344 2.77110028
-11.1914892 -10.6447428 2.78873204
-9.5866556 -10.6457728 2.78409816
-11.5592452 -10.6353732 2.76599336
-10.0151388 -10.5645428 2.77708912
-9.9139576 -10.5803156 2.79968168
-7.8515072 -10.599284 2.79491044
-8.0201892 -10.5374452 2.77556992
-2.21163748 -10.5575048 2.77213716
1.80336596 -10.5294532 2.79363824
6.8571576 -10.5514248 2.76957988
8.713706 -10.521982 2.76250552
-9.9409868 -10.5051872 2.79033184
1.71807884 -10.5150432 2.76978828
9.178342 -10.49897 2.76809072
-9.1731804 -10.454138 2.76001072
-4.412808 -10.4756468 2.78358556
-4.3073444 -10.454464 2.7887602
-8.0002928 -10.4335748 2.7959988
-5.8136676 -10.4335508 2.7866466
-5.3156652 -10.422262 2.76255824
-4.1662608 -10.4041672 2.77141808
-1.37726332 -10.4119112 2.7902844
2.07251932 -10.4290572 2.78892136
4.6186856 -10.4196272 2.79602528
5.7351304 -10.4030036 2.77496196
-13.7908476 -10.3739212 2.77685452
-7.3298012 -10.3733272 2.7790978
-4.2245388 -10.3956432 2.76129772
-4.1331116 -10.3741332 2.76309156
9.5851812 -10.380746 2.77090596
3.922328 -10.355076 2.78464748
-3.94669128 -10.2956656 2.78991936
0.7453642 -10.201974 2.78148104
-1.29460048 -10.1437188 2.76452684
0.47053768 -10.1211092 2.77024364
9.508272 -10.150958 2.7935586
9.7025148 -10.1080016 2.76932432
-13.3177508 -10.0217304 2.7758894
-1.19053672 -10.0156556 2.7980604
9.8581532 -10.0236264 2.76692484
1.25343896 -9.7372856 2.78566552
0.72231864 -9.1364592 2.76020668
-0.40148236 -9.0605372 2.77305172
-0.0022997856 -8.9003724 2.761425
-13.7101612 -8.8731928 2.7647648
-0.49640668 -8.853484 2.76884316
0.12656784 -8.8552456 2.76121712
0.42568968 -8.8749904 2.76001548
1.12503864 -8.8529684 2.7668972
-13.7906788 -8.8037492 2.77471876
9.3754796 -8.7721108 2.791734
-13.7189768 -8.2938984 2.791332
9.792448 -8.2877788 2.787297
-13.4303292 -8.2352752 2.78685784
9.6341704 -7.0962852 2.76367616
9.2782508 -6.825952 2.7707274
-13.7084132 -6.4518052 2.76766016
8.818202 -6.401902 2.78351116
-13.5634536 -6.347762 2.76220512
8.7157288 -6.082168 2.77118968
-13.710166 -5.9604996 2.7824354
8.4705532 -5.9830412 2.76447176
-13.5667848 -5.6303172 2.796468
-13.7145644 -5.46603 2.79614376
-6.3378692 -5.1287044 2.79411124
-13.8138084 -5.0704764 2.79654144
-4.0018476 -5.040886 2.79461624
-5.0692548 -5.0295248 2.7692952
-4.5352412 -5.0371496 2.78628872
-5.2766076 -4.9213232 2.78372096
-5.9532776 -4.8594896 2.78898548
-6.6352952 -4.8139812 2.78630544
-6.0398396 -4.8165212 2.7895174
-5.4441604 -4.8170864 2.7902322
-4.8488232 -4.8230156 2.79773188
-3.34088372 -4.8313576 2.79993868
-6.1390648 -4.7690996 2.77970672
-4.7962508 -4.6871192 2.76423216
-6.1967716 -4.6682776 2.79228212
-4.9692656 -4.6449532 2.78724908
-6.8924976 -4.6252368 2.77174784
-7.2261104 -4.454896 2.78571892
-6.1545488 -4.4567372 2.78973436
-5.6194416 -4.453206 2.78203724
-5.0831564 -4.4584256 2.79341652
-2.48097468 -4.4237216 2.784338
-7.3069828 -4.28324 2.79243088
-5.9607612 -4.2878396 2.79095816
-4.0609036 -4.1738192 2.7842698
-2.3926716 -4.1767916 2.76245524
-5.4251632 -4.0743896 2.79996252
-4.9547636 -4.0509532 2.79604672
-6.8790264 -4.0180616 2.77523424
-7.4800316 -3.9713378 2.79577016
-7.7632724 -3.93081476 2.76539232
-7.792038 -3.85729312 2.76428296
-7.2530068 -3.86060236 2.77134632
-6.1756984 -3.8648596 2.78043316
-5.6367292 -3.87021684 2.7918682
-6.1268392 -3.56695032 2.78698636
-4.7563616 -3.56413556 2.78694772
-19.8890456 -3.40109016 2.7870798
-6.1949812 -3.28069376 2.79942584
-7.2772068 -3.27584576 2.78929328
-2.6318214 -3.1187136 2.77384328
-5.4388276 -2.96524812 2.78915976
7.893528 -2.90069484 2.77572228
-6.8305888 -2.8612528 2.76610136
7.636936 -2.8094368 2.78360224
-7.30263 -2.68049668 2.79653476
-5.0310288 -2.71296976 2.79937552
-13.6896468 -2.66145276 2.78786372
-2.4447968 -2.66479396 2.78180172
-6.5586648 -2.59632088 2.7976768
-13.2018412 -2.51903008 2.76806404
-6.7012208 -2.49754476 2.78628492
-2.4032438 -2.49903344 2.76341772
-2.62587164 -2.47090912 2.78347208
-2.3745904 -2.42060852 2.77890372
-6.1091708 -2.374938 2.78988884
-6.8623328 -2.34142352 2.77292396
7.8818472 -2.35740232 2.7928846
7.6250904 -2.30782272 2.77455092
-13.6474608 -2.24273108 2.78348184
-13.516982 -1.9837098 2.77805568
-2.42795896 -1.94339896 2.79929496
-6.7640336 -1.80670548 2.79651736
7.608596 -1.80654192 2.76193856
-6.7837404 -1.54981492 2.79879664
-3.02000664 -1.5156474 2.77085112
-3.05461788 -1.44589616 2.76407432
-13.4927464 -1.42067052 2.78339744
-2.4317212 -1.37588976 2.79993176
-3.32654144 -1.3445742 2.77852608
-2.6340964 -1.25903224 2.77016784
-13.7078648 -1.20357204 2.78549004
-2.38287044 -1.2010256 2.79601812
-3.6982038 -0.95987224 2.7628734
-3.59505844 -0.94034148 2.77338028
-3.019706 -0.93917988 2.7889614
-3.0700066 -0.88307764 2.78179764
-4.0301372 -0.8540678 2.77525544
-3.3121438 -0.69909692 2.79832244
-2.62235832 -0.65666484 2.78916048
-3.29187728 -0.50816584 2.77653432
-4.737956 -0.360934256 2.77161432
-4.170102 -0.365133284 2.7750616
-3.95471836 -0.360599516 2.76246024
-3.714638 -0.397200108 2.77988888
-3.59462 -0.3640728 2.79106428
-13.7765864 -0.34279394 2.79906988
-3.08411692 -0.317017556 2.79728556
-4.6425172 -0.200865268 2.76005696
-4.0884228 -0.20177412 2.77376936
-4.0128184 -0.20781684 2.79617596
8.3507052 0.0374268292 2.79941224
9.446746 0.078433512 2.79995608
-4.35544 0.086503028 2.777009
-3.27866148 0.087533472 2.79535772
-5.4493416 0.135329484 2.7686572
-3.73114824 0.16803956 2.7969854
-5.3208752 0.209240436 2.76284504
-4.7450284 0.21016884 2.77885248
-4.1694832 0.211023808 2.79359292
-3.93963052 0.231057644 2.78184224
-4.7178988 0.285912036 2.79330944
-5.1972052 0.353524924 2.76280332
-4.6432336 0.35268402 2.77729608
-4.5922016 0.372228144 2.77005888
-5.7305436 0.40893316 2.76116276
-4.9942816 0.56706356 2.77643536
-6.1638092 0.63504864 2.76711772
-4.3735548 0.65131448 2.79437852
9.3194276 0.70693064 2.77813436
-5.8957628 0.78467584 2.76790144
-5.4279224 0.781821 2.78900908
-5.319996 0.78530408 2.7805414
-4.744312 0.78607844 2.79611636
-13.6448776 0.86661768 2.78635264
-8.5969668 0.915262 2.79219056
-5.7520264 0.90788244 2.76710844
-5.19804 0.90725924 2.7796464
-4.6438988 0.90657712 2.79337
-4.5770212 0.95845152 2.78706836
-5.6293336 1.045485 2.77488256
-6.4410548 1.09400964 2.76822732
-5.220482 1.09415484 2.77597524
-6.8793464 1.13944016 2.76986744
-5.0127124 1.1321454 2.79178812
-7.1375376 1.19191432 2.7627282
-5.8564652 1.22807504 2.76563404
-6.139352 1.28224064 2.78859664
9.3127488 1.31827404 2.79678248
-7.0464848 1.35957336 2.76200248
-6.4705996 1.36000968 2.7725358
-5.8947388 1.36055064 2.78558828
-5.3190328 1.3611436 2.79990864
-2.45560648 1.41046584 2.77880192
-7.4154256 1.46270084 2.7620182
-6.861008 1.4626198 2.76397468
-6.3069188 1.46231152 2.77141904
-5.7530032 1.461792 2.78396272
-5.1989404 1.4612236 2.79768276
-6.2615248 1.52127576 2.77398752
-2.45999812 1.56369068 2.76456092
-5.6502324 1.60958576 2.792161
-7.594272 1.64933204 2.77909708
-5.2023336 1.6727922 2.79565144
-6.466318 1.68994404 2.78281188
-7.1681648 1.79287432 2.7816086
-6.8560144 1.78472244 2.78639984
-13.7826444 1.8045194 2.79596568
-5.838688 1.80456664 2.78211044
-7.4970092 1.90150164 2.76616408
-7.6205972 1.93519712 2.77506304
-7.0453908 1.93525268 2.77674628
-6.4678728 1.9345038 2.77969836
-13.8931464 1.97310472 2.79315924
-6.8906716 1.99454916 2.77342604
-7.4162708 2.01692868 2.7722044
-6.862146 2.01669504 2.77925824
-6.3079572 2.01643516 2.78709628
-7.081778 2.05686164 2.77147056
-6.2825876 2.08578132 2.78893588
-13.8181048 2.27222444 2.77705908
-7.568154 2.29503228 2.79636288
-7.1963572 2.39633892 2.79700996
-7.5217136 2.4619832 2.78292464
-7.6193028 2.51066684 2.79064416
-7.0440396 2.51077152 2.7948556
-6.4460472 2.50296092 2.7903104
-6.9144716 2.5578034 2.79094576
-7.4176668 2.57115936 2.78905536
-6.8633732 2.57099392 2.79572012
-7.0607232 2.62339164 2.7889452
-7.679028 2.75059892 2.76837204
-3.32428552 2.72130324 2.7640524
-7.5458756 3.02544212 2.79846596
-13.9475624 3.06004976 2.77389456
-13.7843 3.1807878 2.78703548
-4.0037028 3.223377 2.76910876
-2.45532964 3.20555924 2.76527572
-7.6553356 3.30996084 2.78845404
-13.9853228 3.47062396 2.769228
-3.02369452 3.46861648 2.76597976
8.996168 3.5125768 2.7605748
-4.7736004 3.55241156 2.77929236
-4.6850048 3.70931744 2.76569128
-3.31118084 3.71125792 2.77250288
-2.82209944 3.68275404 2.76847552
-14.014166 4.1472252 2.78430056
-4.836134 4.1503596 2.79453824
-3.01732684 4.158872 2.79144764
-5.3626632 4.1930972 2.7625072
-3.99398804 4.1783272 2.76052236
-3.86956072 4.2355276 2.77093388
-2.45720888 4.2083 2.79436328
8.8727636 4.386714 2.79604412
-7.4192328 4.6981944 2.76522924
-6.0205416 4.7097416 2.78216624
-7.587058 4.7556 2.78200436
-6.8407968 4.7600508 2.7844498
-4.8619572 4.7740224 2.7906382
-7.6210472 4.8106556 2.76958752
-7.246488 4.8125604 2.77160072
-7.0100488 4.8096868 2.76312304
-5.2963324 4.8126616 2.76812052
-4.7245852 4.8207372 2.7816844
8.2305096 4.8766384 2.77532004
-4.4085048 4.9200204 2.78084992
-7.3995692 4.9906064 2.78512596
-5.0367424 5.0191844 2.76173424
-3.49524712 5.028388 2.79278636
-4.5697288 5.158472 2.76376224
-5.3248152 5.1621176 2.77325916
-6.5457644 5.3001184 2.76730396
-5.1979636 5.3449244 2.77807904
-4.64406 5.3452424 2.79728816
7.5835496 5.3221224 2.77981448
-5.895472 5.385728 2.77295972
-13.7782324 5.662614 2.79838752
6.9403972 5.768094 2.78263928
7.3481636 6.153298 2.76530672
6.30641 6.2362976 2.77032208
6.8704992 6.3568792 2.79111336
6.8853712 6.3568304 2.779099
-5.9541388 6.5597148 2.77052808
5.6690788 6.674038 2.77533912
4.2328352 7.0094412 2.78827168
-13.7830904 7.0894004 2.7947378
-14.0486144 7.1242456 2.79084492
5.5891844 7.5271884 2.79057456
-13.8156832 7.5626908 2.77024508
-3.51513576 7.6599208 2.77371408
-14.1005468 7.7140632 2.78586436
4.923184 7.8705096 2.76998784
-13.74086 8.1730376 2.77379464
4.1297344 8.3036156 2.7958274
-14.1162816 8.3415032 2.76178552
-5.0359308 10.105914 2.79750584
-8.8188448 10.730152 2.78732396
-13.9508868 10.8743628 2.77544068
-13.722788 11.1527892 2.79768564
-9.2070084 11.3050108 2.78152132
-6.1546316 11.4015932 2.76701616
-2.56569148 11.4529048 2.78751636
-7.3691564 11.5463276 2.79526232
-7.9527616 11.6106168 2.78053856
-19.8890456 11.8721448 2.7870798
-14.0879544 12.0174352 2.78345036
-8.7535936 12.033596 2.77951576
-13.939808 12.0670528 2.77639912
-7.9373708 12.1468736 2.78343392
-6.4930724 12.1576308 2.7739358
-13.8512364 12.499304 2.78142356
-6.1391688 12.4915468 2.78534508
-6.738434 12.5547312 2.7838788
-13.6550732 14.894044 2.79207848
-13.7857552 15.3557664 2.7942114
-13.9018344 15.7847784 2.79277276
-3.30193208 16.5134392 2.7971368
-3.15896676 18.3684576 2.799407
-3.3602116 18.4280204 2.76641224
-2.25851916 18.5489196 2.7882054
-0.54473828 18.8198224 2.7676778
-4.0006484 18.92428 2.78631712
-6.3175224 19.2350748 2.79990388
2.25475216 19.3036212 2.7620492
2.3429818 19.3726844 2.79140304
-5.5836948 19.4688624 2.77416708
2.64939212 20.6046144 2.79451416
6.52059 20.935816 2.77492188
6.7733056 20.9754048 2.79986
7.0267444 20.9601364 2.78204916
6.1035128 21.051588 2.7719202
6.1340044 21.1287232 2.7826388
-13.088586 -10.8069372 2.818974
-9.2444736 -10.8069364 2.81896736
5.5049332 -10.8069364 2.81897068
-13.366646 -10.7734204 2.80513956
-13.1535968 -10.7710828 2.80542944
-12.2124976 -10.6806984 2.81371976
-11.91086 -10.7152272 2.83228016
-10.7253276 -10.6032716 2.83788324
-10.5289536 -10.5606536 2.83080052
-10.5173952 -10.5811512 2.82382632
-9.0670756 -10.54731 2.81989144
-8.2897024 -10.5254688 2.83269452
-7.0417736 -10.5510084 2.8024254
-6.7037536 -10.5554544 2.82695244
5.7894148 -10.5205096 2.81085968
-13.3475668 -10.497816 2.81701516
-7.4298984 -10.4905588 2.802907
-5.552128 -10.5144128 2.80587696
7.8752412 -10.5167216 2.80658556
8.2904528 -10.505644 2.8373046
-4.4183176 -10.4589756 2.8263564
-4.2095376 -10.4693964 2.81981612
8.880806 -10.478052 2.83938076
-4.8254816 -10.4072836 2.8026812
1.08670544 -10.4017696 2.81744744
8.9691256 -10.404746 2.80947376
1.52327276 -10.3960972 2.82740544
1.58029772 -10.3965872 2.83133244
2.59767532 -10.3933212 2.80492592
6.429226 -10.3809528 2.83803008
-6.0085736 -10.3573152 2.8060596
-4.9702776 -10.3462812 2.831182
-4.3490744 -10.3238524 2.8059082
-3.28082012 -10.3208656 2.81206872
4.1207384 -10.2958204 2.81526088
3.31521128 -10.2548544 2.82316636
-0.40427828 -9.9322396 2.80596448
1.45995736 -9.6383476 2.80905532
-1.06646432 -9.580036 2.83368564
-13.7105524 -9.4864636 2.83406972
0.186725856 -9.37018 2.82574272
-0.40842448 -9.2459192 2.80925584
-0.58898664 -9.1939308 2.82219936
0.0240035056 -9.1056348 2.83269788
-13.7172888 -8.8342972 2.83049584
0.8886664 -8.7543068 2.81418608
-7.9163648 -8.6580124 2.81896688
-13.724516 -8.1820888 2.82667112
-13.3408424 -8.1203268 2.80288672
9.74932 -7.7898468 2.82205796
-13.7212324 -7.7132644 2.82610916
-13.727892 -7.5290988 2.82487772
9.2450636 -7.3652564 2.81042672
-13.7336752 -6.876428 2.82181548
8.831582 -6.788888 2.81494928
9.0511704 -6.6854092 2.81084536
-13.3652116 -6.2941552 2.82884288
8.4010276 -6.2709356 2.81849648
-13.737522 -6.2233604 2.81977368
7.8972208 -5.9542764 2.81857324
-13.812338 -5.5767412 2.82368304
-13.740902 -5.5701528 2.8179822
-5.9242012 -5.4346284 2.81896996
7.5295984 -5.2901092 2.82473136
-13.7171764 -4.965874 2.81082152
-4.5920772 -4.98729 2.80119752
-13.7447568 -4.9169468 2.81594372
-13.5724944 -4.9187092 2.83157612
-4.2536412 -4.8348752 2.81273128
-6.6314036 -4.7987472 2.80243468
-3.90719176 -4.4940384 2.83611824
-3.78734948 -4.5177644 2.82173896
-6.7823324 -4.4751272 2.83083868
-4.547018 -4.4642548 2.8061304
-4.0111336 -4.4697772 2.81817008
-3.47543 -4.4759072 2.83154152
-4.5843912 -4.4259892 2.82089472
-9.1042612 -4.3601664 2.81897448
-5.26754 -4.3577056 2.80785752
-2.59957244 -4.3252472 2.82603504
7.7035384 -4.3073228 2.834517
-7.3173036 -4.1628684 2.83276008
-4.8331548 -4.0826732 2.81061648
-4.2409388 -4.091238 2.82163144
-3.77997088 -3.93320512 2.82630204
-4.5594196 -3.880924 2.81472444
-4.0209724 -3.8875346 2.82883404
-5.0979876 -3.87541484 2.80296324
-4.5843268 -3.85943412 2.82896568
7.6791296 -3.80885456 2.81585644
-5.2685072 -3.78809024 2.81695296
-5.9600216 -3.71603536 2.80514168
-3.31976128 -3.69299556 2.8198638
-7.2849964 -3.6720152 2.80527808
-4.9257856 -3.45541192 2.81363036
-5.9958008 -3.3395436 2.80958556
-5.4068936 -3.3460262 2.81806612
-4.8180536 -3.35602452 2.831146
-13.310502 -3.29619552 2.83574392
-8.4402036 -3.2857046 2.81897332
-7.8151404 -3.28925516 2.81732036
-5.653746 -3.2850578 2.80854608
-5.1124984 -3.29103448 2.82103776
-4.5714552 -3.29717136 2.83386184
-5.2636432 -3.217762 2.83486556
-5.9567544 -3.1423812 2.82312988
-4.0229124 -3.0827112 2.81884192
-7.269936 -3.06200932 2.81407404
-6.0206324 -3.00404812 2.83109356
-6.092556 -2.96279336 2.80740212
-4.894166 -2.8601246 2.83281088
-13.3922128 -2.81538104 2.8392806
-6.7589504 -2.68281792 2.80128644
-6.2145108 -2.69077492 2.81757236
-5.670702 -2.696244 2.82876492
-5.974764 -2.61929752 2.82825208
-6.6564016 -2.48624276 2.82871868
-4.7106312 -2.4907596 2.82136776
-7.2731916 -2.4542246 2.81217052
-7.4497152 -2.40908384 2.837842
-6.0642096 -2.35992812 2.8242774
-7.3270904 -2.0859852 2.81680012
-6.7808816 -2.08887364 2.8225906
-6.234398 -2.09431504 2.83349824
-2.44458724 -2.08746528 2.80706216
-13.7367048 -1.92207812 2.82847928
-4.9554268 -1.92610836 2.82825184
-6.5365844 -1.89912008 2.83692956
-5.3869844 -1.90455244 2.82096864
-7.69988 -1.87458612 2.80371736
-7.2357808 -1.84247732 2.83402872
-2.60364984 -1.81420088 2.81942748
7.863942 -1.80478836 2.8128922
-13.2580024 -1.79449988 2.827296
-13.688656 -1.7318766 2.81247472
-13.7259636 -1.6466236 2.82590152
-7.3517156 -1.48644592 2.837934
-2.4445572 -1.51233388 2.81085156
-13.51896 -1.33569504 2.82455184
-6.0487624 -1.3361132 2.82424356
7.8444828 -1.2454884 2.83370732
-2.60150148 -1.1770854 2.82290648
-13.7312624 -0.9934478 2.82309248
-2.45029496 -0.81251432 2.82544328
-6.7033252 -0.77328016 2.82533884
-13.7537996 -0.6915822 2.82586144
-3.01943588 -0.363124372 2.80537988
-2.45808816 -0.24133444 2.83279516
-7.3351208 -0.234276296 2.83281588
-13.7754412 -0.159513472 2.8042748
11.3443624 -0.080821516 2.82408904
-3.29716492 -0.05714464 2.81904936
-2.38405084 -0.00321155788 2.8128898
-3.594193 0.2118783 2.80832432
-3.01912856 0.212780952 2.82389308
-3.09964584 0.250969648 2.81516648
-13.7038096 0.31533718 2.83764268
-3.99515532 0.43470408 2.81767036
-13.7465124 0.5475384 2.8088944
-3.28250004 0.5806632 2.83929636
-3.26550912 0.68039276 2.8140936
-3.7477336 0.73586772 2.81415748
-4.1688596 0.78689432 2.81253052
-3.59373092 0.78760504 2.82683468
-3.9244256 0.81978012 2.80145504
-3.11447288 0.82197212 2.8318
-13.372326 0.898118 2.81544016
-4.6998168 0.9274676 2.81205152
-3.97873092 1.07244944 2.83727456
-4.3915596 1.21880388 2.8115034
-3.25300216 1.27086116 2.83178352
-3.76401376 1.30651472 2.83074476
-2.6119144 1.28622244 2.8060572
-2.27618216 1.34478808 2.83282996
-4.7435292 1.36177088 2.81505776
-4.168272 1.3623984 2.83019924
-5.4059276 1.42471384 2.81029488
-3.9094758 1.40588164 2.82065628
-4.644664 1.46063876 2.8118038
-4.5593528 1.53994896 2.80839444
-4.6786216 1.56713416 2.835598
-13.7259636 1.62123824 2.82590152
-5.0333928 1.698534 2.81116484
-4.4105808 1.78834176 2.83035828
-6.1160144 1.92475616 2.80852484
-5.8937364 1.93611788 2.80285452
-5.3181308 1.93661976 2.8180046
-4.742742 1.93714952 2.83398484
-3.89478756 1.98937036 2.8394518
-5.7539368 2.01600648 2.80003644
-5.1997576 2.01553844 2.81415556
-4.6453772 2.01504444 2.82906724
-5.3847808 2.06312992 2.83038496
-4.5445032 2.12080144 2.82491732
-5.6699928 2.17701624 2.80722332
-5.1860448 2.25009228 2.81210852
-5.0518228 2.26891256 2.82634496
-13.8017904 2.29152916 2.8113618
-8.0833568 2.31308152 2.81965352
-6.4945336 2.29090096 2.8013854
9.9926664 2.31347084 2.81897496
-5.819956 2.37755348 2.80037452
-6.8306028 2.42733144 2.8060372
-6.4683904 2.51104356 2.80579948
-5.8927596 2.51138876 2.8196826
-5.3172776 2.51177548 2.83524992
-6.3090464 2.57079888 2.80356288
-6.09331 2.5629692 2.82761764
-5.7549148 2.57046748 2.8169036
-5.200594 2.57011652 2.8310294
-6.3058192 2.65152596 2.80787848
-5.6917796 2.74581432 2.82597184
-13.819976 2.77810408 2.82597924
-5.1687688 2.8238876 2.83036184
-6.5219904 2.8951516 2.81877016
-7.541448 2.93715144 2.81458808
-5.8013068 2.947891 2.818547
-7.2254456 3.00389956 2.81349492
-6.804616 3.06633996 2.8266096
-6.4260632 3.06989788 2.80840968
-13.9407196 3.0859134 2.8083248
-7.6180144 3.08587836 2.806221
-7.0426556 3.08599712 2.813375
-6.467138 3.0861852 2.82473564
-5.8917132 3.08640124 2.83776952
-7.4189664 3.12568904 2.80474164
-6.9378692 3.12394 2.80755616
-6.86472 3.12553932 2.81376316
-6.3102456 3.1254096 2.82161164
-5.75589 3.12520792 2.83377672
-7.039928 3.18744088 2.80603836
-6.3274256 3.22096704 2.82363008
-6.5496152 3.5031736 2.83626296
-5.783092 3.51584436 2.83602524
-13.9893664 3.59438704 2.80110408
-7.5706356 3.5911138 2.81504964
-7.5144068 3.57555128 2.83341264
-7.2556744 3.61575128 2.8314004
-6.4070096 3.63484764 2.82489372
-7.6166216 3.6608424 2.82305048
-7.0414676 3.66089464 2.82936096
-7.4203624 3.68046856 2.82160996
-6.9612008 3.69276668 2.8239174
-6.8659472 3.68039704 2.83024264
-6.311286 3.6803384 2.83730984
-13.744198 3.75948072 2.82396744
-7.0189036 3.74865104 2.8236642
-8.26023 3.79991888 2.82907508
9.4180144 3.80414344 2.82963752
-7.6307916 3.86609984 2.81027864
-7.5950168 4.1597124 2.83072852
-13.7649908 4.2184916 2.80593728
-7.615228 4.2355276 2.83987188
-7.4216296 4.2355276 2.8369174
-2.73378088 4.2355276 2.822052
-8.177002 4.2876244 2.83193232
-6.9987936 4.3078944 2.83967732
-3.40727472 4.2986364 2.80244828
-13.77083 4.7112996 2.80395268
-3.907737 4.7095256 2.80003
-4.6203552 4.7654608 2.82749844
-7.484968 4.828014 2.83645608
-4.1518888 4.847484 2.82660912
-13.914234 5.0441376 2.82044076
-5.754344 5.3454052 2.80709456
-4.9170192 5.4185792 2.81894588
7.6149868 5.6547632 2.82755256
-14.0211772 5.8969408 2.83952952
-13.9275208 5.9622384 2.80206776
-17.1214752 6.1575824 2.81896924
-13.7587872 6.1391124 2.81300068
-4.6941596 6.1575832 2.81897164
-4.1292848 6.1575864 2.81897736
7.2863684 6.1391896 2.82384372
12.8170584 6.1575852 2.81897544
-14.0295392 6.5119552 2.81257008
-13.7687436 6.6144948 2.80551672
3.98565912 7.0412336 2.80844856
3.70121288 7.5915392 2.81621172
5.323222 7.6938084 2.83371828
5.406408 7.8275552 2.8275788
3.97200252 7.86578 2.8350892
5.2075032 8.0029372 2.8341894
4.2666904 8.1174604 2.81213928
-14.1397704 8.2607252 2.82019472
-15.0839032 8.55188 2.82408716
-14.2187492 8.7978724 2.83384372
-13.7011568 9.1028432 2.82803632
-13.7022972 10.3724728 2.8182664
-8.4297932 10.758628 2.8191564
-4.7209776 10.9266996 2.8026986
5.4149836 11.2208672 2.81696796
-8.1942216 11.2820092 2.81085252
-5.1904336 11.3441752 2.82209324
-9.7278824 11.3758564 2.80151512
-13.8212136 11.4461412 2.82797552
-4.0789556 11.4866076 2.80655528
-9.13715 11.7542736 2.82161712
-7.2734508 11.766612 2.83048652
-13.8356884 11.97509 2.80486248
-9.6402816 12.0060348 2.8188646
-7.3572472 12.0862196 2.80223512
-6.1102252 12.0817232 2.8119116
-14.101964 12.3227596 2.81242108
-13.9560148 12.5973712 2.81341912
-14.1061192 12.6488096 2.813663
-8.5126792 12.7458132 2.80293464
-14.0612992 13.3097028 2.83405568
-13.9403532 15.1565304 2.81043052
-13.8625144 15.1567668 2.80875516
-13.7650224 15.2669848 2.809973
-13.5612584 15.3326624 2.81953692
-13.8192652 15.4092788 2.8254118
-13.5240192 15.7981004 2.82121588
-13.8609124 15.8751612 2.82887696
-13.6121836 15.9248696 2.83008432
-2.36477328 18.3548184 2.81685948
-3.35679148 18.3625164 2.82723524
-2.05319788 18.3973464 2.82634972
-3.63390064 18.4742756 2.80742836
-2.6048374 18.5084284 2.81750296
-0.41491152 18.840124 2.81693268
-6.5394104 19.0150452 2.8158734
-6.1348764 19.000162 2.82951404
-5.4484776 19.2823772 2.83166504
-6.172968 19.7809828 2.83348252
2.35130404 19.8065968 2.80600832
2.20505096 20.0672644 2.82443428
3.69778728 20.5511092 2.83200072
4.4853964 20.57876 2.80685212
5.0485316 20.595398 2.8118868
2.87713336 20.6090584 2.81222272
4.2629856 20.6715372 2.82246828
5.8577212 20.8201028 2.82470728
6.6342508 20.88443 2.82439996
6.1360056 21.0139352 2.80396676
6.3792756 21.0185604 2.82507108
7.6411112 21.1657408 2.80694796
6.1244596 21.3452512 2.83090208
10.6771468 21.426916 2.81897544
-1.8697686 -13.8405704 2.87711288
-1.86977436 -13.275692 2.87710904
-13.219454 -10.918956 2.84175516
-13.0715408 -10.7785416 2.86984872
-10.3153048 -10.6878176 2.8515482
-12.4089108 -10.6671992 2.85247636
-10.674368 -10.671112 2.86851788
-9.0471724 -10.640214 2.86885832
-11.0176812 -10.6004392 2.87810324
-9.16527 -10.5619604 2.8748436
-7.8696504 -10.5959644 2.84910584
-6.78509 -10.561552 2.87767768
-2.03992032 -10.5554428 2.85556148
-1.7017566 -10.5513268 2.8589194
-6.5532704 -10.48489 2.84568644
-6.6864604 -10.4718152 2.86551952
-5.6344928 -10.457712 2.85281228
-3.14175892 -10.444874 2.85135268
5.0948716 -10.4418564 2.871778
5.3941804 -10.4412116 2.8427744
8.7969284 -10.4546556 2.86580848
-4.8870772 -10.4053392 2.85436248
7.7794532 -10.4040164 2.84600924
-6.4965268 -10.3918724 2.8474374
-5.5919604 -10.3677368 2.85535812
-4.3346456 -10.3919508 2.84374904
-3.84267808 -10.3811264 2.872741
-3.34942244 -10.3815688 2.87155532
-2.57029652 -10.3721636 2.87338924
-1.5870726 -10.3732892 2.86053252
2.56824112 -10.3859892 2.85971736
3.64439272 -10.3699208 2.86383676
4.3177868 -10.3633728 2.86348964
-0.393745184 -10.3309612 2.84784724
7.2014912 -10.3407668 2.87064672
8.8358336 -10.2901544 2.85908292
-13.6951464 -10.1367208 2.8422332
-0.089554072 -10.1051024 2.87451936
1.30197812 -9.8862552 2.87624548
-13.9687044 -9.3968716 2.85746812
-0.376465084 -9.3386744 2.87326288
-13.7882288 -9.2963792 2.84196996
1.254086 -9.271944 2.85891868
1.2855692 -9.0908968 2.85043
-0.60804512 -9.074856 2.86972856
0.47329284 -9.075636 2.86888456
0.653579 -9.0728932 2.87208748
1.02488492 -8.9308624 2.8515432
-13.4245576 -8.8916016 2.86912776
9.7030868 -7.2848988 2.85841012
-13.7280952 -7.129172 2.8554008
-13.807824 -6.5739612 2.87636088
8.8093348 -6.4646956 2.87848688
-13.8094636 -6.0773896 2.84983228
8.0232896 -5.6904668 2.86984492
7.726638 -5.3078104 2.85217428
7.7112392 -4.8084044 2.84040308
-13.297182 -4.7958576 2.84936476
-3.23550248 -4.5619928 2.854141
-13.6408804 -4.484486 2.85024928
-2.93936372 -4.4973448 2.8782916
-13.5647152 -4.3123688 2.87096216
-7.2080992 -4.1177788 2.85576916
11.5846196 -4.0797464 2.87710904
-12.9739532 -4.0386816 2.8572192
-3.2331674 -4.0016208 2.86055184
-3.90609408 -3.93053864 2.84318232
-3.48274352 -3.89492704 2.84461524
-2.94478512 -3.90262772 2.86105324
-13.3486832 -3.87906648 2.85365556
-2.6195464 -3.816216 2.86738444
-7.3162524 -3.58625652 2.8523102
-3.2239256 -3.44105864 2.87793948
-4.2289992 -3.3671086 2.8456464
-3.8974986 -3.36701964 2.86196256
-7.4955512 -3.3405192 2.84211516
-3.74936556 -3.34585096 2.84521316
-4.5772432 -3.29264116 2.847816
-4.0306 -3.30395056 2.8480296
-3.48997472 -3.3112092 2.86319948
-2.94962384 -3.31862544 2.87869976
15.42873 -3.06906416 2.87884808
-7.3279456 -3.00248384 2.85380076
-4.5712308 -2.72281216 2.86507368
-3.71843268 -2.75905228 2.86433576
-13.2896444 -2.6947174 2.86052988
-5.127056 -2.7020402 2.84062816
-4.5836164 -2.70799972 2.85282564
-4.0403264 -2.71495388 2.86705636
-7.7385076 -2.65182256 2.8715322
-7.1506872 -2.6441498 2.86132264
-5.2583052 -2.64494036 2.85353612
-4.2171088 -2.6489098 2.86765696
-5.3891444 -2.629076 2.84126376
-4.8032704 -2.639122 2.85463168
-3.29128192 -2.6067698 2.8524916
-5.9527752 -2.56629036 2.84221696
-12.9565592 -2.50344944 2.8787098
-7.3438068 -2.41409636 2.8494544
-6.0171916 -2.36815764 2.84605716
-4.8591536 -2.26508856 2.85404684
-13.431734 -2.17803336 2.85899924
-7.868264 -2.1084132 2.86176084
-5.6879608 -2.1009412 2.84678124
-5.141714 -2.10807228 2.86107872
-4.5958088 -2.11435224 2.87366796
-5.253168 -2.06936168 2.87196136
-3.98614548 -2.01543308 2.85199904
-5.9508572 -1.98670196 2.85833216
-7.122588 -1.92032148 2.86562992
-4.7885808 -1.92860008 2.87683676
-6.7288712 -1.88461256 2.84696816
-6.6547432 -1.90374708 2.84694816
-5.9540648 -1.90765192 2.84847976
-5.371414 -1.91747664 2.86177896
-7.3435316 -1.82858468 2.86816548
-6.0245696 -1.74736356 2.85382556
-4.8257016 -1.67088272 2.87434148
-7.8978524 -1.49672508 2.858124
-6.8031508 -1.48871136 2.84238432
-6.2541364 -1.49463344 2.85401584
-5.7053328 -1.50055504 2.86564732
-5.156714 -1.50682092 2.877954
-5.9470736 -1.40508364 2.87725256
-4.6673108 -1.43716764 2.85254384
-7.373088 -1.38107372 2.87473964
-6.6521292 -1.31886436 2.86663316
-6.7272348 -1.25393532 2.8669548
-7.3619456 -1.23292208 2.8603854
-7.2244072 -1.23369456 2.840672
-5.9337736 -1.2051668 2.87128544
-13.737832 -1.16167544 2.85522844
-7.0930912 -1.19075464 2.85143568
-6.5134348 -1.19707584 2.860142
-8.0781824 -1.1466012 2.85615204
-5.9997416 -1.15516092 2.86265872
-4.8957444 -1.15913488 2.85104992
-13.2923376 -1.0987296 2.87503268
-2.44427036 -0.93497612 2.84533928
-6.8256828 -0.88272072 2.86166596
-6.2741264 -0.88897036 2.873693
-7.3771348 -0.87825608 2.85307192
-5.335224 -0.87155224 2.85409544
-7.4454708 -0.76974012 2.87367392
7.8248168 -0.6802264 2.85474228
-7.362936 -0.64102268 2.87749052
-7.1943564 -0.62369776 2.85822628
-8.077428 -0.55261992 2.87821436
-2.59007384 -0.536649 2.84139396
-7.6443564 -0.492563 2.86995124
-7.067118 -0.4942944 2.87237788
-6.4900896 -0.49825072 2.87792204
-13.338566 -0.40823508 2.865366
-4.8319272 -0.397966384 2.87542344
-2.44425392 -0.360364436 2.84701776
-5.991762 -0.313066004 2.8538022
-7.9566312 -0.261655568 2.86317396
-7.402438 -0.266413452 2.872149
-6.848622 -0.269889116 2.87870716
-7.1619016 -0.0141158104 2.87718536
-6.638014 -0.00098204612 2.8464198
-8.0914096 0.050325872 2.8798008
-2.5881946 0.093003988 2.84443664
-13.3445616 0.2391243 2.84526064
-7.6146744 0.204704524 2.879663
-6.6342744 0.227989196 2.85751248
-2.44428944 0.213878156 2.84281636
-7.9854116 0.359516144 2.8757956
-2.4698744 0.330652476 2.84684752
-13.4293632 0.64326096 2.84990716
-8.1064652 0.6569872 2.87999748
9.3186932 0.650609 2.84557484
-7.2639236 0.75439072 2.86392784
-6.5606408 0.76319868 2.8719604
-3.0188484 0.78829504 2.84071732
-13.6648312 0.97052528 2.85830308
-13.4543408 1.02770496 2.87027168
-3.26880312 1.21392964 2.85802292
-8.1354464 1.2732022 2.86088944
9.315736 1.28754948 2.87323188
-3.593292 1.3629906 2.84449624
-3.12956096 1.39551352 2.84884284
-3.018528 1.3636346 2.8600502
-13.4925736 1.66040612 2.8539102
-3.96195984 1.70654904 2.85746096
-3.78131844 1.87924744 2.84907008
-3.25431944 1.84390284 2.87802792
-3.23958968 1.8578198 2.85097384
9.3088884 1.9109204 2.86012648
-4.1676572 1.93763708 2.84870052
-3.59284212 1.93809676 2.86256884
-3.01825476 1.9385562 2.87643528
-3.14510632 1.97149016 2.8666296
9.4273472 1.97736024 2.87501692
-13.5313472 2.03848792 2.84071064
-2.4515972 2.17012404 2.87837316
-4.661462 2.20030904 2.85304332
-2.51599072 2.21645308 2.8649578
-3.94551348 2.33658696 2.87717296
-4.4281956 2.36136436 2.8466456
-3.79756404 2.4552822 2.86548304
-3.22662376 2.44228196 2.86944628
-2.27522444 2.47811364 2.84880852
-4.7420796 2.51214124 2.84996416
-4.1670636 2.51255892 2.86677264
-3.59241532 2.51288248 2.87979268
-4.6460424 2.56976508 2.84516336
-3.8811004 2.57078288 2.8565836
9.4248104 2.59308816 2.859457
9.2005348 2.61524488 2.84743692
-5.3637676 2.69757344 2.85035228
-4.5286308 2.69810988 2.84324216
-8.2021924 2.834002 2.87115668
-4.6421224 2.83101296 2.87386964
-2.52017164 2.82893132 2.87809132
-5.0712332 2.84136652 2.84324264
-2.44869708 2.85157084 2.86876152
-4.446266 2.9368062 2.86367656
-5.3164588 3.08663128 2.85164404
-4.741316 3.08690952 2.86845016
-5.201436 3.12497376 2.8479128
-4.64676 3.12473296 2.8624468
-3.8671086 3.1491828 2.8742652
-3.1606052 3.14107036 2.8753202
-6.0705004 3.19736312 2.84694768
9.422078 3.2022772 2.84416104
-13.8690252 3.26494668 2.86542036
-4.512654 3.27259756 2.86179328
-13.7128936 3.2827878 2.84748936
-5.7120792 3.31823492 2.84183668
-13.511736 3.35599636 2.84924412
-5.3435808 3.32767176 2.86914732
-5.1519288 3.39527512 2.84790204
-2.397074 3.3823352 2.86049104
-5.0912804 3.41609336 2.86121464
-2.445647 3.53736688 2.87722016
-6.466022 3.66099572 2.8415556
-5.8906628 3.6611142 2.85584928
-5.3154984 3.6612394 2.8709736
-6.7795268 3.70093488 2.84599544
-5.756938 3.6802182 2.85183812
-5.2023524 3.68009756 2.86637424
-6.3505164 3.79206348 2.84208296
-6.045208 3.82929756 2.87001728
9.5033396 3.80258012 2.87085056
-4.4971104 3.8446636 2.87963508
-5.7340652 3.89220644 2.860749
-5.1341036 3.9632654 2.86723184
-5.110696 3.99393844 2.87794304
-6.5786004 4.1156436 2.85550928
-5.7637528 4.0803212 2.85558224
-6.3861976 4.1958604 2.84467196
-17.1214752 4.2355312 2.8771124
-15.99172 4.235526 2.8771124
-7.4872804 4.2101092 2.85247136
-7.2858504 4.2313336 2.84908248
-7.0400224 4.2355276 2.8487034
-6.8671504 4.2355276 2.84634304
-6.4647964 4.2355276 2.86004924
-6.3125352 4.2355276 2.8561616
-5.8896656 4.2355276 2.87307216
-5.7578732 4.2355276 2.86794688
-3.81786872 4.21847 2.86459016
9.3702936 4.2355276 2.87967872
11.1224232 4.235526 2.8771124
-6.9858252 4.2633276 2.84265136
-2.51539708 4.2702292 2.87197448
9.2827664 4.2984324 2.87470912
-6.7531336 4.3323716 2.8673706
-2.57024644 4.3433256 2.8734696
-6.3716324 4.3672276 2.85666108
-2.50649356 4.6290444 2.87314628
-3.14832972 4.7281024 2.84522964
-2.65222096 4.7899472 2.87152744
-13.806488 4.83084 2.85099888
-6.9771404 4.8634032 2.8586664
-3.81558348 4.846286 2.87280392
-3.01004076 4.8718632 2.86755704
-2.783926 4.9025828 2.8785498
-2.582536 4.9643712 2.8535924
8.250434 4.9818908 2.87193156
-14.1087572 5.2170324 2.86529376
-5.7382328 5.210182 2.87137604
-3.23985768 5.2466284 2.87039996
-4.6239348 5.2835464 2.8672912
8.0387468 5.2803728 2.85112428
-13.9835064 5.44349 2.86598228
8.0476952 5.5868024 2.868469
-14.0285492 5.6235784 2.86225892
7.8914332 5.6835676 2.84907724
-14.109482 6.0910236 2.8601098
-5.2333704 6.2276868 2.86229848
6.1952072 6.997466 2.84762288
-3.25128912 7.1707216 2.87449456
6.0557872 7.1998836 2.84461688
4.859872 7.529082 2.87728308
8.701536 7.5557908 2.84575652
-14.1039256 8.1040372 2.86191868
-14.2343044 9.6336164 2.84548928
-13.712016 9.6175224 2.8475578
-13.7899304 10.370284 2.87580944
-13.8055496 10.9109804 2.85181548
5.3895604 11.0032464 2.87266468
-13.9885712 11.0665912 2.8440082
5.671226 11.1574964 2.86085892
5.8610716 11.1591968 2.85674476
-14.2534944 11.2679424 2.8683586
-7.9082724 11.3317584 2.862252
-6.2377884 11.4684448 2.87661336
-6.80682 11.4941168 2.86184384
-14.273142 12.0504588 2.87921668
-7.9855624 12.0525228 2.8754158
-7.6311148 12.1126348 2.85677288
-14.2860316 12.1738356 2.87338256
-9.9092692 12.2750244 2.87559368
-8.4793748 12.349844 2.85969448
-15.3241624 12.5508024 2.87711288
-9.7464896 12.6493436 2.86929964
-7.9615664 12.6982308 2.8657446
-9.9111156 12.8512592 2.85963012
-13.9718456 13.1219988 2.84994388
-14.124134 13.275216 2.84364104
-9.2413376 13.2540312 2.87960912
-8.1200592 13.297264 2.87054132
-14.3346508 13.7229508 2.85197328
-14.1415804 13.896862 2.87325692
-13.8833884 14.7958688 2.86963416
-1.86977436 14.9682104 2.87710904
-13.7438812 15.0105744 2.84351968
-13.6920032 15.1969908 2.86318876
-13.9409484 15.2593384 2.87619304
-13.662074 15.2515756 2.86492012
-13.7054156 15.4837572 2.85093688
-1.86977436 15.5330888 2.87710904
-13.6861952 15.6750164 2.86755132
-3.45450352 16.3229216 2.86496592
-3.71248388 16.814972 2.86800956
-2.86065412 18.335394 2.86764668
-3.138741 18.3680152 2.86357784
-3.26813292 18.51816 2.8626852
-2.46962832 18.4817124 2.86717032
-1.6195376 18.8362064 2.84120344
1.50787328 18.8318424 2.85607912
1.61659216 19.001524 2.84574248
-5.9494084 19.4607256 2.86142016
-6.2689232 19.8745232 2.87574648
2.060292 19.974226 2.86464452
2.4345374 20.3109396 2.84545588
3.86798596 20.5525036 2.8542242
3.14745472 20.620392 2.84247684
6.2784452 21.044594 2.85991596
7.9772148 21.1527216 2.87302588
7.77225 21.1809616 2.84820892
7.9219684 -10.929632 2.90951968
-12.7077036 -10.7788592 2.9023068
-11.4514664 -10.7208396 2.9168272
-10.6363012 -10.6809624 2.88292836
-11.7930184 -10.6778776 2.91493608
-10.2443124 -10.6772136 2.89521264
-9.448284 -10.633972 2.90994548
-9.7822124 -10.5962716 2.90107252
-8.1286716 -10.5922888 2.90687464
7.5426532 -10.5494728 2.91326736
1.31534316 -10.4999312 2.8821616
6.9417228 -10.5001984 2.88980508
8.5319308 -10.5182516 2.88787724
-3.10050272 -10.4503708 2.88793944
-6.8372124 -10.4136856 2.90713692
-5.0720572 -10.4328024 2.915987
3.38456844 -10.43369 2.88049316
9.4970912 -10.4323236 2.90762448
-6.214374 -10.3915272 2.8821678
-2.85645556 -10.376154 2.88606072
2.845932 -10.37918 2.9067464
5.2569884 -10.3727396 2.90794492
5.533584 -10.3668652 2.91094492
-4.6117924 -10.3246748 2.89909672
-1.260767 -10.3320904 2.89827632
-4.7575056 -10.2937108 2.8813424
1.46516992 -10.2158968 2.91395236
-13.4967596 -9.8874968 2.89143612
-0.343524456 -9.914772 2.89594436
-13.7850016 -9.785348 2.90673256
0.77536488 -9.6770964 2.88016892
-0.098385096 -9.3953896 2.90751576
-13.503358 -9.2468184 2.89472772
-0.241869928 -9.273758 2.89840792
-13.8398 -9.2321588 2.89729144
-0.058266888 -9.162428 2.8872974
9.5777396 -9.0256032 2.89249156
9.5863228 -8.7867996 2.9140482
9.6305112 -8.0420084 2.89193916
9.5901184 -7.0993008 2.89196468
-13.8039884 -7.0646744 2.90150332
-13.7344152 -6.5425784 2.88553168
8.7506352 -6.2953108 2.89835644
-13.5283756 -6.0404256 2.90720604
-13.7375832 -5.9541064 2.91968012
8.619546 -5.9588252 2.90508676
-13.5330984 -5.398832 2.90956308
-6.3519644 -4.1206848 2.90052484
-2.5592766 -4.0749836 2.89122272
-2.40703892 -3.91504 2.88754724
-2.5481434 -3.51795624 2.90923976
-7.181568 -3.39606164 2.88352204
-2.4094038 -3.33393 2.91068532
-2.56646872 -3.23433684 2.90079736
-3.21506024 -2.87774896 2.89474248
-3.88929416 -2.80074932 2.88015412
-7.8352104 -2.73231436 2.90258956
-3.49729252 -2.72190072 2.88127472
-2.95449924 -2.72950624 2.89684032
-13.6143724 -2.28975584 2.88504648
-3.2057376 -2.31199788 2.91229176
-3.88105156 -2.23186492 2.89843512
-3.68899916 -2.17301704 2.88252328
-4.5636472 -2.1509304 2.88476468
-4.0501376 -2.12062908 2.88625216
-3.5046792 -2.12724352 2.89951132
-2.95940208 -2.13554956 2.91616344
-7.4976216 -2.06682016 2.89506008
-4.2053652 -1.93843676 2.8901534
-3.872555 -1.6604376 2.9171362
-4.555584 -1.5765996 2.90522908
-3.65885852 -1.58748724 2.9011538
-13.4793188 -1.54062508 2.88273428
-4.0600632 -1.5205612 2.90494348
-3.26258708 -1.54814936 2.8858216
-5.2482348 -1.4909954 2.8901272
-4.608192 -1.51447628 2.8929906
-7.4818116 -1.42323948 2.89841844
-7.677622 -1.2203474 2.89219308
-5.353968 -1.21427416 2.88382936
-4.7739268 -1.22363948 2.89672852
-4.1936956 -1.23427392 2.91137432
-6.0167752 -1.11067748 2.8848114
-4.7976008 -1.0777912 2.8913908
-3.94962 -0.97423936 2.88543008
-13.489214 -0.89956092 2.88767052
-7.9238296 -0.89878296 2.89258148
-5.7228672 -0.89467908 2.88468288
-5.2430464 -0.91000652 2.90872288
-5.1717168 -0.90127848 2.89738512
-4.6207856 -0.90805532 2.910429
-5.9432772 -0.82072592 2.89625908
-3.07260848 -0.77203036 2.9088986
-6.6506924 -0.73073576 2.88469124
-13.5382356 -0.70030664 2.891294
-6.7239056 -0.62528252 2.88448192
-5.9679512 -0.55374384 2.88158656
-4.759532 -0.52720688 2.91850448
-6.0157388 -0.48609044 2.90287016
-5.913486 -0.50765084 2.89109588
-5.3366336 -0.51730204 2.90462184
-4.7672552 -0.48506976 2.9097998
-3.23442508 -0.5138204 2.9186046
-13.769804 -0.4260806 2.89091636
-4.6238304 -0.4110396 2.88504744
12.0651332 -0.4128456 2.9158616
-13.2034952 -0.351292612 2.91118908
-5.7405344 -0.283424376 2.90424252
-5.186778 -0.290918112 2.91837932
-13.5198764 -0.259653568 2.90296412
-6.2945388 -0.27610922 2.89044188
-5.9396936 -0.233513356 2.91501832
-7.439806 -0.140119316 2.89056204
-6.649484 -0.13969326 2.90249084
-13.5148448 -0.043560504 2.90744544
-7.363194 -0.04656744 2.89572096
7.7455272 -0.070051252 2.90204836
-6.7213236 -0.00029563904 2.90293048
7.5604544 -0.00357747076 2.89515592
-5.9358012 0.047084808 2.90072776
-3.91496944 0.046960116 2.91628744
8.7619648 0.087679388 2.91294384
-5.2855832 0.141752244 2.88467096
-7.0412808 0.196241616 2.89173268
-6.4673376 0.190438508 2.90000916
-5.8935204 0.181727648 2.91243268
-7.4281396 0.352013828 2.88967132
-6.8715424 0.347141028 2.89868356
-6.3148764 0.340582132 2.910815
-13.6814708 0.371495008 2.89054632
-13.4760152 0.384941576 2.88108636
-7.435898 0.4851966 2.909724
-7.3639492 0.55096816 2.91334344
-4.9765668 0.53374344 2.90901708
-7.1286756 0.59488868 2.89660312
-4.5823328 0.59554316 2.91502356
-5.9353176 0.684772 2.884104
-2.55285024 0.74279428 2.9016168
9.43342 0.72720956 2.90620328
-2.44390584 0.7907176 2.88945388
-7.0158524 0.87876416 2.91261148
-7.5864996 0.8865688 2.90128232
-2.50273324 0.89421652 2.89630176
-8.0150472 0.98966144 2.88296652
-7.4536856 0.97391032 2.91153336
-6.894586 0.96930192 2.9198904
-5.6170936 0.98175432 2.90632512
-5.2370396 1.13267468 2.91457224
-7.0926436 1.20338964 2.91764976
-6.5708952 1.20955468 2.88829328
9.4306012 1.35575296 2.89042496
-6.2616676 1.42968416 2.90522028
-7.4868584 1.48184848 2.88724112
-8.0423708 1.61197208 2.91505908
-13.5392324 1.66613864 2.91262244
-5.8806128 1.66249992 2.91275216
-7.1918384 1.71269296 2.89946652
9.421072 1.78529976 2.9198284
-13.630844 1.84944464 2.90914772
-6.9093188 1.88048376 2.90370488
9.31188 1.91700744 2.90013124
-8.1329956 1.9353074 2.8824904
-13.9548264 2.04873132 2.91121196
9.4176932 2.27520324 2.9171562
-7.5644836 2.31895972 2.91184568
-13.6464424 2.32730484 2.89742612
-3.23992348 2.47000336 2.89790748
-2.54922988 2.45668316 2.90748216
-3.01768924 2.513644 2.91043568
-3.15994668 2.550586 2.88316752
-13.9800356 2.76741864 2.88688304
9.4155196 2.76521588 2.9154358
-13.6643504 2.8049152 2.88396836
